0 0 0 0 0 0 0 0 0 0 0 0 0 0 0 0 0 0 0 0 0 0 0 0 0 0 0 0 0 0 0 0 0 0 0 0 0 0 0 0 0 0 0 0 0 0 0 0 0 0 0 0 0 0 0 0 0 0 0 0 0 0 0 0 0 0 0 0 0 990 992 992 990 988 987 984 982 981 978 975 972 970 969 969 967 967 966 966 964 963 961 960 959 959 959 959 960 960 961 963 966 967 967 969 970 972 972 973 975 975 976 976 978 978 978 978 976 975 973 973 972 969 969 966 966 964 963 961 961 961 961 961 961 961 961 961 961 960 960 960 960 961 961 963 964 964 966 967 967 967 969 967 966 964 963 961 959 956 954 954 953 953 953 954 957 959 960 963 967 970 973 975 981 0 0 0 0 0 0 0 0 0 0 0 0 0 0 0 0 0 0 0 0 823 824 825 826 0 0 0 0 0 0 0 0 0 0 0 0 0 0 0 0 0 0 0 0 0 0 0 0 0 0 0 0 0 0 0 0 0 0 0 0 0 0 0 0 0 0 0 0 0 0 0 0 0 0 0 0 0 0 0 0 0 0 0 0 0 0 0 0 0 0 0 0 0 0 0 0 0 0 0 0 0 0 0 0 0 0 0 0 0 0 0 0 0 0 0 0 0 0 0 0 0 0 0 0 843 840 841 845 848 853 861 869 876 0 0 917 0 0 0 0 978 982 982 984 987 987 987 987 987 987 987 985 984 982 981 978 975 970 966 963 959 954 951 948 946 944 941 941 941 941 941 943 944 944 946 947 947 947 947 947 946 944 944 943 943 943 943 943 944 944 946 947 947 947 948 948 948 948 948 948 948 948 950 950 950 951 951 951 951 951 951 951 953 953 953 954 954 954 954 956 956 956 956 957 957 957 957 959 959 960 960 960 960 960 961 961 963 963 964 966 967 970 975 978 981 984 987 990 992 995 996 0 0 0 0 0 0 0 0 0 0 1004 1004 1006 1004 1004 1003 1001 999 999 998 998 996 996 996 995 995 995 995 995 995 995 993 993 993 993 993 992 992 992 990 990 990 990 988 988 988 988 988 988 988 990 990 0 0 0 0
0 0 0 0 0 0 0 0 0 0 0 0 0 0 0 0 0 0 0 0 0 0 0 0 0 0 0 0 0 0 0 0 0 0 0 0 0 0 0 0 0 0 0 0 0 0 0 0 0 0 0 0 0 0 0 0 0 0 0 0 0 0 0 0 0 0 0 0 0 0 993 993 992 992 990 988 985 982 979 976 975 973 972 970 970 969 969 967 966 966 964 961 961 960 960 960 961 963 964 966 967 969 970 972 972 973 975 976 976 976 978 978 978 979 978 979 978 978 976 976 975 973 972 970 969 967 967 966 964 964 964 964 964 964 963 963 963 963 963 963 963 964 964 966 966 967 969 969 970 970 970 969 967 966 964 961 960 959 957 954 954 954 956 956 957 960 961 963 966 969 972 975 978 0 0 0 0 0 0 0 0 0 0 0 0 0 0 0 0 0 0 0 0 821 822 823 824 823 0 0 0 0 0 0 0 0 0 0 0 0 0 0 0 0 0 0 0 0 0 0 0 0 0 0 0 0 0 0 0 0 0 0 0 0 0 0 0 0 0 0 0 0 0 0 0 0 0 0 0 0 0 0 0 0 0 0 0 0 0 0 0 0 0 0 0 0 0 0 0 0 0 0 0 0 0 0 0 0 0 0 0 0 0 0 0 0 0 0 0 0 0 0 0 0 0 0 0 0 0 838 843 847 850 0 870 0 0 0 922 0 0 0 969 978 982 984 985 987 987 987 987 987 987 985 985 984 982 981 978 975 972 967 963 960 956 951 948 946 944 941 941 940 941 941 943 943 944 946 946 946 947 947 946 946 946 944 944 944 944 944 944 944 946 946 947 947 947 948 948 948 948 948 948 948 950 950 950 951 951 951 951 951 951 953 953 953 954 954 956 956 956 956 956 957 957 957 959 959 959 959 960 960 960 960 961 961 961 963 963 964 966 966 967 970 972 975 979 982 985 988 990 993 993 995 0 0 0 0 0 0 0 0 0 1001 999 1001 1003 1003 1001 1001 999 998 998 996 996 995 995 995 995 995 993 993 993 993 993 993 992 992 992 992 992 990 990 990 988 988 988 988 988 987 987 987 988 988 990 990 0 0 0 0
0 0 0 0 0 0 0 0 0 0 0 0 0 0 0 0 0 0 0 0 0 0 0 0 0 0 0 0 0 0 0 0 0 0 0 0 0 0 0 0 0 0 0 0 0 0 0 0 0 0 0 0 0 0 0 0 0 0 0 0 0 0 0 0 0 0 0 0 0 0 0 995 993 993 993 990 988 985 982 979 978 976 975 973 972 972 970 970 969 967 966 964 963 963 961 963 964 964 966 967 970 972 972 973 975 975 976 976 978 978 979 979 981 981 981 979 981 979 979 979 978 976 975 973 972 972 970 969 969 967 967 967 966 966 966 966 966 966 966 966 966 966 967 967 969 970 972 972 973 973 972 972 970 969 967 964 961 960 959 957 956 956 957 957 959 960 963 964 966 967 970 973 0 0 0 0 0 0 0 0 0 0 0 0 0 0 0 0 0 0 0 0 816 818 819 821 822 822 0 0 0 0 0 0 0 0 0 0 0 0 0 0 0 0 0 0 0 0 0 0 0 0 0 0 0 0 0 0 0 0 0 0 0 0 0 0 0 0 0 0 0 0 0 0 0 0 0 0 0 0 0 0 0 0 0 0 0 0 0 0 0 0 0 0 0 0 0 0 0 0 0 0 0 0 0 0 0 0 0 0 0 0 0 0 0 0 0 0 0 0 0 0 0 0 0 0 0 0 835 837 841 846 849 860 870 0 0 912 925 0 0 960 969 979 982 984 985 985 987 987 987 985 985 985 984 982 982 981 978 975 972 967 963 960 956 953 948 946 944 941 941 940 941 941 941 943 944 946 947 947 947 947 947 947 946 946 944 944 944 944 946 946 946 947 947 948 948 948 948 948 948 948 950 950 950 950 951 951 951 951 951 953 953 954 954 954 956 956 957 957 957 957 959 959 959 959 959 959 960 960 961 961 961 963 963 963 963 964 964 966 967 967 969 972 973 976 979 984 985 988 992 992 993 995 0 0 0 0 0 0 0 0 0 998 998 998 998 999 999 998 998 996 996 995 995 995 993 993 993 993 993 993 992 992 992 992 992 992 992 990 990 990 990 990 988 988 988 988 988 987 987 988 988 988 990 990 0 0 0 0
0 0 0 0 0 0 0 0 0 0 0 0 0 0 0 0 0 0 0 0 0 0 0 0 0 0 0 0 0 0 0 0 0 0 0 0 0 0 0 0 0 0 0 0 0 0 0 0 0 0 0 0 0 0 0 0 0 0 0 0 0 0 0 0 0 0 0 0 0 0 0 996 996 995 993 993 990 987 984 982 979 978 976 976 975 975 973 972 970 969 967 966 966 964 964 964 966 967 969 970 972 973 973 975 976 976 978 978 979 979 979 981 981 982 982 982 981 982 981 981 979 979 978 976 975 975 973 972 972 970 970 970 969 969 969 967 967 967 967 967 969 969 969 970 972 973 973 975 975 975 975 973 972 970 969 966 964 961 960 959 957 957 959 959 960 961 963 964 967 969 969 970 0 0 0 0 0 0 0 0 0 0 0 0 0 0 0 0 0 0 0 0 813 815 816 819 819 819 0 0 0 0 0 0 0 0 0 0 0 0 0 0 0 0 0 0 0 0 0 0 0 0 0 0 0 0 0 0 0 0 0 0 0 0 0 0 0 0 0 0 0 0 0 0 0 0 0 0 0 0 0 0 0 0 0 0 0 0 0 0 0 0 0 0 0 0 0 0 0 0 0 0 0 0 0 0 0 0 0 0 0 0 0 0 0 0 0 0 0 0 0 0 0 0 0 0 0 0 834 835 838 843 0 0 872 881 896 916 929 0 950 960 970 979 982 984 984 985 987 985 985 985 985 984 984 984 982 981 979 976 972 969 964 960 957 953 948 946 944 941 941 941 941 941 943 944 944 946 947 947 948 948 948 947 947 947 947 946 946 946 946 947 947 948 948 948 950 950 950 950 950 950 950 951 951 951 953 953 953 953 953 954 954 954 956 956 957 959 959 959 960 960 960 960 960 960 960 960 961 961 963 963 964 964 964 966 966 966 966 967 969 970 970 972 975 978 981 982 985 988 990 993 993 995 993 993 0 0 0 0 0 0 993 996 996 996 998 998 996 996 995 995 995 993 993 993 993 993 993 992 992 992 992 992 992 992 990 990 990 990 990 990 990 990 988 988 988 988 988 988 988 988 988 988 990 990 0 0 0 0
0 0 0 0 0 0 0 0 0 0 0 0 0 0 0 0 0 0 0 0 0 0 0 0 0 0 0 0 0 0 0 0 0 0 0 0 0 0 0 0 0 0 0 0 0 0 0 0 0 0 0 0 0 0 0 0 0 0 0 0 0 0 0 0 0 0 0 0 0 0 0 0 996 996 995 993 992 990 987 984 982 981 979 978 978 976 975 975 973 970 969 969 967 967 966 967 969 969 970 972 973 975 976 976 978 978 979 979 979 981 981 982 982 984 984 984 984 984 984 984 982 982 981 981 979 978 976 975 973 973 973 972 972 972 970 970 970 969 970 970 970 970 972 972 973 975 976 976 978 978 976 976 973 972 970 967 966 963 961 960 959 959 960 960 961 963 963 964 966 967 969 969 0 0 0 0 0 0 0 0 0 0 0 0 0 0 0 0 0 0 0 810 812 813 814 815 816 815 0 0 0 0 0 0 0 0 0 0 0 0 0 0 0 0 0 0 0 0 0 0 0 0 0 0 0 0 0 0 0 0 0 0 0 0 0 0 0 0 0 0 0 0 0 0 0 0 0 0 0 0 0 0 0 0 0 0 0 0 0 0 0 0 0 0 0 0 0 0 0 0 0 0 0 0 0 0 0 0 0 0 0 0 0 0 0 0 0 0 0 0 0 0 0 0 0 0 0 0 831 834 0 0 0 0 872 882 0 918 930 943 950 961 970 979 981 982 984 985 985 985 985 985 985 985 984 984 982 981 979 976 973 969 966 961 957 953 950 947 944 943 941 941 941 943 943 944 946 947 947 948 950 950 950 950 950 948 948 948 948 948 948 948 950 950 950 950 950 950 951 951 951 951 951 953 953 953 953 954 954 954 954 956 956 956 957 959 959 960 961 961 961 961 961 961 961 961 961 961 963 963 964 964 966 966 967 967 969 969 969 969 970 970 972 973 976 979 981 984 987 990 992 993 993 993 993 992 993 992 992 990 992 992 993 995 995 996 995 995 995 995 993 993 993 993 993 992 992 992 992 992 992 992 992 990 990 990 990 990 990 990 990 990 990 990 988 988 988 988 988 988 988 988 988 988 990 990 0 0 0 0
0 0 0 0 0 0 0 0 0 0 0 0 0 0 0 0 0 0 0 0 0 0 0 0 0 0 0 0 0 0 0 0 0 0 0 0 0 0 0 0 0 0 0 0 0 0 0 0 0 0 0 0 0 0 0 0 0 0 0 0 0 0 0 0 0 0 0 0 0 0 0 0 0 0 996 993 993 990 988 987 984 982 981 979 979 978 978 976 975 973 970 970 969 969 969 969 970 972 972 973 975 976 976 978 978 979 979 981 981 981 982 982 984 984 984 985 985 984 985 985 985 984 984 982 981 981 979 978 976 976 975 975 975 973 973 972 972 972 972 972 973 973 975 975 976 978 978 979 979 979 979 978 976 973 972 969 967 964 963 961 960 960 961 961 963 963 964 966 966 967 967 0 0 0 0 0 0 0 0 0 0 0 0 0 0 0 0 0 0 0 0 808 809 810 812 812 813 813 0 0 0 0 0 0 0 0 0 0 0 0 0 0 0 0 0 0 0 0 0 0 0 0 0 0 0 0 0 0 0 0 0 0 0 0 0 0 0 0 0 0 0 0 0 0 0 0 0 0 0 0 0 0 0 0 0 0 0 0 0 0 0 0 0 0 0 0 0 0 0 0 0 0 0 0 0 0 0 0 0 0 0 0 0 0 0 0 0 0 0 0 0 0 0 0 0 0 0 0 831 833 0 0 0 860 872 884 0 922 933 944 951 961 970 978 979 982 984 984 985 985 984 984 985 984 984 982 982 981 979 976 973 969 966 961 959 954 951 948 946 944 944 943 943 944 944 946 947 948 950 950 950 951 951 951 951 950 950 950 950 950 950 950 951 951 951 951 951 951 951 953 953 953 953 953 954 954 954 956 956 956 957 957 957 959 959 960 961 961 963 963 963 963 963 963 963 963 963 964 964 964 966 966 967 967 969 969 970 970 970 972 972 972 973 975 976 979 982 984 987 988 992 992 992 992 992 990 990 990 990 990 990 992 992 992 993 993 993 993 993 993 993 992 992 992 992 992 992 992 992 992 990 990 990 990 990 990 990 990 990 990 990 990 990 990 988 988 988 988 988 988 988 988 988 988 988 988 0 0 0 0
0 0 0 0 0 0 0 0 0 0 0 0 0 0 0 0 0 0 0 0 0 0 0 0 0 0 0 0 0 0 0 0 0 0 0 0 0 0 0 0 0 0 0 0 0 0 0 0 0 0 0 0 0 0 0 0 0 0 0 0 0 0 0 0 0 0 0 0 0 0 0 0 0 0 996 995 992 992 990 987 985 984 982 981 981 979 979 978 976 975 973 972 970 970 970 970 972 972 973 975 976 976 978 978 979 979 981 981 981 982 982 984 984 984 985 985 985 985 987 987 985 985 985 985 984 984 982 981 979 978 978 978 976 976 975 975 975 973 975 975 975 975 976 976 978 979 981 981 981 981 979 979 978 975 972 970 967 966 964 963 961 961 963 963 963 964 964 966 966 967 967 0 0 0 0 0 0 0 0 0 0 0 0 0 0 0 0 0 0 0 805 807 807 808 809 810 811 810 0 0 0 0 0 0 0 0 0 0 0 0 0 0 0 0 0 0 0 0 0 0 0 0 0 0 0 0 0 0 0 0 0 0 0 0 0 0 0 0 0 0 0 0 0 0 0 0 0 0 0 0 0 0 0 0 0 0 0 0 0 0 0 0 0 0 0 0 0 0 0 0 0 0 0 0 0 0 0 0 0 0 0 0 0 0 0 0 0 0 0 0 0 0 0 0 0 0 0 0 830 834 0 0 0 861 874 886 0 925 936 946 953 963 969 978 979 982 982 984 984 984 985 984 985 985 984 984 984 982 979 978 973 970 967 963 960 956 953 950 947 946 944 944 944 944 946 947 948 950 951 951 951 953 953 953 953 953 951 951 951 953 953 953 953 953 954 954 954 953 953 954 954 954 954 954 956 956 956 957 957 957 959 959 959 960 961 961 963 964 964 964 964 964 964 964 964 964 966 966 966 967 967 969 969 970 970 972 972 972 972 973 973 973 975 976 978 979 982 984 985 988 990 990 990 990 990 988 988 987 987 987 988 988 990 990 992 992 992 992 992 992 992 992 992 992 992 992 992 992 990 990 990 990 990 990 990 990 990 990 990 990 990 988 988 988 988 988 988 988 988 988 988 988 988 988 988 0 0 0 0 0
0 0 0 0 0 0 0 0 0 0 0 0 0 0 0 0 0 0 0 0 0 0 0 0 0 0 0 0 0 0 0 0 0 0 0 0 0 0 0 0 0 0 0 0 0 0 0 0 0 0 0 0 0 0 0 0 0 0 0 0 0 0 0 0 0 0 0 0 0 0 0 0 0 0 0 995 993 992 990 988 987 985 984 982 982 981 979 978 976 976 975 973 972 972 972 972 973 975 975 976 978 978 979 979 979 981 981 981 982 982 982 984 984 984 984 985 985 985 987 987 987 987 987 987 985 985 984 982 981 981 979 979 978 978 976 976 976 976 976 976 976 978 978 979 979 981 981 982 982 982 981 979 978 976 973 972 969 967 966 964 964 963 963 964 964 964 964 966 966 966 966 0 0 0 0 0 0 0 0 0 0 0 0 0 0 0 0 0 0 803 804 805 805 806 807 808 808 808 0 0 0 0 0 0 0 0 0 0 0 0 0 0 0 0 0 0 0 0 0 0 0 0 0 0 0 0 0 0 0 0 0 0 0 0 0 0 0 0 0 0 0 0 0 0 0 0 0 0 0 0 0 0 0 0 0 0 0 0 0 0 0 0 0 0 0 0 0 0 0 0 0 0 0 0 0 0 0 0 0 0 0 0 0 0 0 0 0 0 0 0 0 0 0 0 0 0 0 0 0 834 0 0 0 864 876 894 0 928 937 947 954 961 969 976 978 981 982 984 984 984 984 985 985 985 985 985 984 982 979 978 975 970 967 964 961 957 954 951 950 948 947 946 946 947 947 948 950 951 953 953 954 954 954 954 954 954 954 954 954 956 956 956 956 956 956 956 956 956 956 954 956 956 956 957 957 957 957 957 959 959 960 960 961 961 963 964 964 966 966 966 966 966 966 966 966 967 967 967 967 969 969 970 972 972 973 973 973 973 975 975 975 975 975 978 979 979 982 982 985 987 988 988 988 987 987 987 985 985 985 987 987 987 988 988 990 990 990 990 990 992 990 990 990 990 990 990 990 990 990 990 990 990 990 990 990 990 990 990 988 988 988 988 988 988 988 988 988 988 988 988 988 987 987 987 987 0 0 0 0 0
0 0 0 0 0 0 0 0 0 0 0 0 0 0 0 0 0 0 0 0 0 0 0 0 0 0 0 0 0 0 0 0 0 0 0 0 0 0 0 0 0 0 0 0 0 0 0 0 0 0 0 0 0 0 0 0 0 0 0 0 0 0 0 0 0 0 0 0 0 0 0 0 0 0 0 995 993 992 990 988 987 985 984 984 982 981 979 979 978 976 975 975 973 973 973 973 975 976 976 978 979 979 979 979 981 981 981 981 982 982 982 984 984 984 985 985 985 987 987 987 987 988 988 988 987 987 985 984 984 982 982 981 979 979 978 978 978 978 978 978 978 979 979 981 981 982 982 982 982 982 982 981 979 978 975 972 970 969 967 966 964 964 964 964 964 964 964 964 964 964 964 0 0 0 0 0 0 0 0 0 0 0 0 0 0 0 0 0 0 803 802 803 803 804 804 805 806 806 807 0 0 0 0 0 0 0 0 0 0 0 0 0 0 0 0 0 0 0 0 0 0 0 0 0 0 0 0 0 0 0 0 0 0 0 0 0 0 0 0 0 0 0 0 0 0 0 0 0 0 0 0 0 0 0 0 0 0 0 0 0 0 0 0 0 0 0 0 0 0 0 0 0 0 0 0 0 0 0 0 0 0 0 0 0 0 0 0 0 0 0 0 0 0 0 0 0 0 0 830 835 0 0 0 866 880 0 918 929 939 947 954 961 969 975 978 981 981 982 982 984 984 985 985 985 985 985 984 982 981 978 975 972 969 966 963 959 957 954 951 950 948 948 948 948 948 950 951 953 954 954 956 956 957 957 957 957 957 957 957 957 957 957 957 957 957 957 957 957 957 957 957 957 957 959 959 959 959 959 960 960 961 961 963 964 966 966 967 969 969 969 969 969 967 967 967 967 969 969 970 970 972 972 973 973 975 975 976 976 976 976 976 976 976 978 979 981 981 982 984 985 985 987 987 985 985 985 985 984 985 985 985 987 987 988 988 990 990 990 990 990 990 990 990 990 990 990 990 990 990 990 990 990 990 990 990 988 988 988 988 988 988 988 988 988 988 988 988 988 988 987 987 987 987 987 985 0 0 0 0 0
0 0 0 0 0 0 0 0 0 0 0 0 0 0 0 0 0 0 0 0 0 0 0 0 0 0 0 0 0 0 0 0 0 0 0 0 0 0 0 0 0 0 0 0 0 0 0 0 0 0 0 0 0 0 0 0 0 0 0 0 0 0 0 0 0 0 0 0 0 0 0 0 0 0 0 0 993 992 990 988 987 985 985 984 982 982 981 979 978 976 976 975 975 975 975 975 976 976 978 978 979 979 981 981 981 981 982 982 982 982 984 984 984 984 985 985 985 985 987 987 988 988 988 988 988 987 987 985 984 984 982 982 981 981 979 979 979 979 979 979 979 981 981 981 982 982 984 984 982 982 982 981 979 978 976 973 972 970 969 967 966 966 966 966 966 964 964 964 964 964 963 0 0 0 0 0 0 0 0 0 0 0 0 0 0 0 0 0 800 801 801 801 802 802 802 802 803 802 803 0 0 0 0 0 0 0 0 0 0 0 0 0 0 0 0 0 0 0 0 0 0 0 0 0 0 0 0 0 0 0 0 0 0 0 0 0 0 0 0 0 0 0 0 0 0 0 0 0 0 0 0 0 0 0 0 0 0 0 0 0 0 0 0 0 0 0 0 0 0 0 0 0 0 0 0 0 0 0 0 0 0 0 0 0 0 0 0 0 0 0 0 0 0 0 0 0 0 0 0 835 0 0 856 872 886 0 921 930 0 948 954 961 967 973 976 979 979 981 982 984 984 985 985 985 985 985 985 982 981 978 975 972 969 966 964 961 959 956 954 953 951 950 950 950 951 953 954 954 956 956 957 959 959 959 959 959 959 959 959 959 959 959 959 959 959 959 959 959 959 959 959 959 959 959 960 960 961 961 961 961 963 963 964 966 967 969 969 970 970 970 970 970 970 969 969 969 969 970 970 972 972 973 975 975 976 976 976 978 978 978 978 978 978 978 979 979 981 981 982 982 984 984 984 984 984 982 982 982 984 984 985 985 987 987 988 988 990 990 990 990 990 990 990 990 990 990 990 990 990 990 988 988 988 988 988 988 988 988 988 988 988 988 988 988 988 987 987 987 987 987 985 985 985 984 0 0 0 0 0 0
0 0 0 0 0 0 0 0 0 0 0 0 0 0 0 0 0 0 0 0 0 0 0 0 0 0 0 0 0 0 0 0 0 0 0 0 0 0 0 0 0 0 0 0 0 0 0 0 0 0 0 0 0 0 0 0 0 0 0 0 0 0 0 0 0 0 0 0 0 0 0 0 0 0 0 0 993 992 990 988 987 985 984 984 982 981 981 979 979 978 976 975 975 975 976 976 976 978 978 979 979 979 981 981 981 981 982 982 982 982 982 984 984 984 984 984 985 985 985 987 988 988 988 988 988 988 987 987 985 984 984 984 982 981 981 981 979 979 981 981 981 981 982 982 982 984 984 984 984 982 982 981 979 978 976 973 972 970 969 967 967 966 966 966 964 964 964 964 963 963 961 0 0 0 0 0 0 0 0 0 0 0 0 0 0 0 0 799 800 799 799 800 800 800 800 800 800 799 799 799 0 0 0 0 0 0 0 0 0 0 0 0 0 0 0 0 0 0 0 0 0 0 0 0 0 0 0 0 0 0 0 0 0 0 0 0 0 0 0 0 0 0 0 0 0 0 0 0 0 0 0 0 0 0 0 0 0 0 0 0 0 0 0 0 0 0 0 0 0 0 0 0 0 0 0 0 0 0 0 0 0 0 0 0 0 0 0 0 0 0 0 0 0 0 0 0 0 0 0 0 0 0 861 875 890 0 924 932 941 948 954 960 966 972 975 978 979 981 981 982 984 985 985 987 987 985 985 982 981 979 976 973 970 967 966 963 960 959 957 954 954 954 953 953 954 954 956 957 957 959 960 960 960 961 960 960 960 960 960 960 961 961 961 961 960 960 960 960 960 960 960 960 960 960 961 961 961 963 963 964 964 966 966 967 969 970 970 972 972 972 972 972 970 970 970 970 970 972 972 973 975 975 976 976 978 978 978 978 978 979 979 979 978 979 979 979 979 981 981 981 981 982 982 982 982 981 982 982 982 982 984 985 985 987 987 988 988 990 990 990 990 990 990 990 990 990 990 990 988 988 988 988 988 988 988 987 987 987 987 987 987 987 987 987 987 987 987 985 985 985 985 984 984 984 0 0 0 0 0 0
0 0 0 0 0 0 0 0 0 0 0 0 0 0 0 0 0 0 0 0 0 0 0 0 0 0 0 0 0 0 0 0 0 0 0 0 0 0 0 0 0 0 0 0 0 0 0 0 0 0 0 0 0 0 0 0 0 0 0 0 0 0 0 0 0 0 0 0 0 0 0 0 0 0 0 0 0 990 990 988 987 984 984 982 982 981 979 979 978 978 976 976 975 976 976 976 978 978 979 979 979 979 979 981 981 981 981 981 981 982 982 982 982 982 984 984 984 984 985 985 987 988 988 988 988 988 987 987 985 985 984 984 982 982 981 981 981 981 981 981 982 982 982 982 982 984 984 984 984 982 982 981 979 978 976 975 972 970 969 969 967 967 966 966 964 963 963 963 961 961 960 0 0 0 0 0 0 0 0 0 0 0 0 0 0 0 0 799 798 798 798 798 798 798 798 798 797 796 796 0 0 0 0 0 0 0 0 0 0 0 0 0 0 0 0 0 0 0 0 0 0 0 0 0 0 0 0 0 0 0 0 0 0 0 0 0 0 0 0 0 0 0 0 0 0 0 0 0 0 0 0 0 0 0 0 0 0 0 0 0 0 0 0 0 0 0 0 0 0 0 0 0 0 0 0 0 0 0 0 0 0 0 0 0 0 0 0 0 0 0 0 0 0 0 0 0 0 0 0 838 0 0 867 881 896 0 925 934 941 948 954 959 966 970 0 0 0 0 0 0 0 0 0 987 987 985 985 984 981 978 976 973 970 969 966 964 963 960 959 957 957 956 956 956 956 956 957 959 959 960 961 961 961 961 961 961 961 961 961 963 963 963 963 963 963 961 961 961 960 960 961 961 961 961 963 963 963 963 964 964 966 967 969 969 970 972 973 973 973 973 973 972 972 972 972 972 972 973 973 975 976 976 978 978 979 979 979 979 979 979 979 979 979 979 979 979 979 979 979 979 979 979 979 979 979 979 981 981 981 982 984 984 985 987 987 988 988 988 988 990 990 990 990 990 988 988 988 988 988 988 988 988 988 987 987 987 987 987 987 987 987 987 987 985 985 985 985 984 984 984 982 982 982 0 0 0 0 0 0 0
0 0 0 0 0 0 0 0 0 0 0 0 0 0 0 0 0 0 0 0 0 0 0 0 0 0 0 0 0 0 0 0 0 0 0 0 0 0 0 0 0 0 0 0 0 0 0 0 0 0 0 0 0 0 0 0 0 0 0 0 0 0 0 0 0 0 0 0 0 0 0 0 0 0 0 0 0 988 988 987 985 984 982 982 981 981 979 978 978 978 976 976 975 976 976 978 978 978 979 979 979 981 981 979 979 981 981 981 981 981 981 981 981 981 982 982 982 984 984 985 987 987 987 987 988 988 987 987 985 985 984 984 982 982 981 981 981 981 981 981 982 982 982 982 984 984 984 984 984 982 981 981 979 978 976 973 972 970 970 969 967 966 966 964 964 963 961 961 961 960 959 0 0 0 0 0 0 0 0 0 0 0 0 0 0 0 797 797 797 797 797 797 797 797 796 796 795 794 793 794 0 0 0 0 0 0 0 0 0 0 0 0 0 0 0 0 0 0 0 0 0 0 0 0 0 0 0 0 0 0 0 0 0 0 0 0 0 0 0 0 0 0 0 0 0 0 0 0 0 0 0 0 0 0 0 0 0 0 0 0 0 0 0 0 0 0 0 0 0 0 0 0 0 0 0 0 0 0 0 0 0 0 0 0 0 0 0 0 0 0 0 0 0 0 0 0 0 0 0 840 0 859 872 887 903 918 926 934 943 948 953 959 964 0 0 0 0 0 0 0 0 0 0 0 0 985 984 984 981 978 976 973 970 969 967 966 964 963 960 960 959 959 957 957 957 959 959 960 961 961 963 963 963 963 963 963 963 963 963 964 964 964 964 964 964 963 963 963 961 961 961 961 961 963 963 963 964 964 966 966 967 969 969 970 972 973 973 975 975 973 973 973 973 972 972 972 973 973 975 976 976 978 978 979 979 979 979 981 981 981 981 979 979 979 979 979 978 978 978 978 978 978 978 978 978 978 979 979 981 981 982 982 984 985 985 987 988 988 988 990 990 990 990 990 990 988 988 988 988 988 987 987 987 987 985 985 985 985 985 985 985 985 985 985 985 984 984 982 982 982 981 981 0 0 0 0 0 0 0 0
0 0 0 0 0 0 0 0 0 0 0 0 0 0 0 0 0 0 0 0 0 0 0 0 0 0 0 0 0 0 0 0 0 0 0 0 0 0 0 0 0 0 0 0 0 0 0 0 0 0 0 0 0 0 0 0 0 0 0 0 0 0 0 0 0 0 0 0 0 0 0 0 0 0 0 0 0 987 987 985 984 982 981 981 981 979 978 978 976 976 976 975 975 976 976 978 978 979 979 979 979 979 979 979 979 981 981 981 981 981 981 981 981 981 981 981 982 982 984 984 985 985 985 987 987 987 987 987 985 985 984 984 982 982 981 981 981 981 981 981 982 982 984 984 984 984 984 984 982 982 981 981 978 976 976 973 972 970 970 969 967 966 964 964 963 961 961 960 960 959 957 0 0 0 0 0 0 0 0 0 0 0 0 0 0 0 796 796 796 796 796 795 795 795 795 794 794 793 792 791 0 0 0 0 0 0 0 0 0 0 0 0 0 0 0 0 0 0 0 0 0 0 0 0 0 0 0 0 0 0 0 0 0 0 0 0 0 0 0 0 0 0 0 0 0 0 0 0 0 0 0 0 0 0 0 0 0 0 0 0 0 0 0 0 0 0 0 0 0 0 0 0 0 0 0 0 0 0 0 0 0 0 0 0 0 0 0 0 0 0 0 0 0 0 0 0 0 0 0 840 0 868 878 894 908 920 928 937 944 950 954 959 964 0 0 0 0 0 0 0 0 0 0 0 0 0 984 982 981 978 975 973 972 969 967 967 966 964 963 961 960 960 960 960 960 960 961 961 963 963 964 964 964 964 964 964 964 964 964 964 966 966 966 966 966 964 964 964 964 963 963 963 963 963 964 964 964 964 966 967 967 969 970 972 973 975 975 975 976 976 975 975 973 973 973 973 973 975 976 976 978 979 979 979 981 981 981 981 981 981 981 981 981 979 979 978 978 976 976 976 976 976 976 976 976 978 978 978 979 981 981 982 984 985 985 988 988 0 0 0 0 0 0 0 0 0 0 0 0 0 0 0 0 0 0 0 0 985 987 984 985 984 984 984 984 982 981 982 981 981 0 0 0 0 0 0 0 0 0 0
0 0 0 0 0 0 0 0 0 0 0 0 0 0 0 0 0 0 0 0 0 0 0 0 0 0 0 0 0 0 0 0 0 0 0 0 0 0 0 0 0 0 0 0 0 0 0 0 0 0 0 0 0 0 0 0 0 0 0 0 0 0 0 0 0 0 0 0 0 0 0 0 0 0 0 0 0 0 984 984 982 981 979 979 979 978 978 976 976 976 975 975 975 975 976 976 978 978 979 979 979 979 979 979 979 979 979 979 979 979 979 979 979 979 979 981 981 981 982 984 984 984 985 987 987 987 987 987 985 985 984 982 982 982 981 981 981 981 981 981 982 982 982 984 984 984 984 982 982 982 981 979 978 976 975 973 972 970 969 967 966 966 964 963 961 960 960 959 957 956 956 0 0 0 0 0 0 0 0 0 0 0 0 0 0 0 796 796 796 796 795 795 795 794 794 793 793 792 791 791 0 0 0 0 0 0 0 0 0 0 0 0 0 0 0 0 0 0 0 0 0 0 0 0 0 0 0 0 0 0 0 0 0 0 0 0 0 0 0 0 0 0 0 0 0 0 0 0 0 0 0 0 0 0 0 0 0 0 0 0 0 0 0 0 0 0 0 0 0 0 0 0 0 0 0 0 0 0 0 0 0 0 0 0 0 0 0 0 0 0 0 0 0 0 0 0 0 0 0 841 854 0 886 900 912 924 932 939 946 950 954 957 0 0 0 0 0 0 0 0 0 0 0 0 0 0 0 0 979 978 975 973 970 969 969 967 966 964 964 963 961 961 961 961 961 961 963 963 964 964 964 966 966 966 966 966 966 966 966 966 966 966 966 966 966 966 964 964 964 964 963 963 964 964 964 964 966 966 967 967 969 969 970 972 973 975 975 976 976 976 976 976 975 975 975 975 975 976 976 978 979 979 981 981 981 979 981 981 981 0 981 981 981 979 981 978 978 975 976 976 975 975 975 975 976 976 976 978 979 979 979 982 982 984 0 0 0 0 0 0 0 0 0 0 0 0 0 0 0 0 0 0 0 0 0 0 0 0 0 0 0 0 0 0 0 0 0 0 0 0 0 0 0 0 0 0 0 0 0 0
0 0 0 0 0 0 0 0 0 0 0 0 0 0 0 0 0 0 0 0 0 0 0 0 0 0 0 0 0 0 0 0 0 0 0 0 0 0 0 0 0 0 0 0 0 0 0 0 0 0 0 0 0 0 0 0 0 0 0 0 0 0 0 0 0 0 0 0 0 0 0 0 0 0 0 0 0 0 982 981 979 979 978 978 976 976 976 976 975 975 975 975 975 975 975 976 976 978 978 978 978 978 978 978 978 978 978 978 978 978 978 978 978 978 978 979 979 981 981 982 982 984 984 985 985 985 985 985 985 984 982 982 982 981 981 981 981 981 981 982 982 982 984 984 984 984 984 984 982 981 981 979 978 976 975 972 970 970 969 966 964 964 963 961 960 959 957 957 956 954 954 0 0 0 0 0 0 0 0 0 0 0 0 0 0 0 796 796 796 796 795 795 795 794 794 793 793 792 790 790 0 0 0 0 0 0 0 0 0 0 0 0 0 0 0 0 0 0 0 0 0 0 0 0 0 0 0 0 0 0 0 0 0 0 0 0 0 0 0 0 0 0 0 0 0 0 0 0 0 0 0 0 0 0 0 0 0 0 0 0 0 0 0 0 0 0 0 0 0 0 0 0 0 0 0 0 0 0 0 0 0 0 0 0 0 0 0 0 0 0 0 0 0 0 0 0 0 0 835 844 0 0 891 904 917 925 933 939 946 951 954 959 0 0 0 0 0 0 0 0 0 0 0 0 0 0 0 0 0 976 975 972 970 967 967 967 967 966 964 964 964 963 963 963 963 963 963 964 964 966 966 967 967 967 967 966 966 966 966 966 966 966 966 966 966 966 964 964 964 964 964 964 964 964 964 964 966 966 967 967 969 970 972 973 975 976 976 978 978 976 976 976 976 975 976 976 976 976 978 979 979 981 0 0 0 0 0 0 0 0 0 0 0 0 0 0 976 976 976 975 975 975 975 975 975 975 976 978 978 979 979 0 0 0 0 0 0 0 0 0 0 0 0 0 0 0 0 0 0 0 0 0 0 0 0 0 0 0 0 0 0 0 0 0 0 0 0 0 0 0 0 0 0 0 0 0 0 0 0 0
0 0 0 0 0 0 0 0 0 0 0 0 0 0 0 0 0 0 0 0 0 0 0 0 0 0 0 0 0 0 0 0 0 0 0 0 0 0 0 0 0 0 0 0 0 0 0 0 0 0 0 0 0 0 0 0 0 0 0 0 0 0 0 0 0 0 0 0 0 0 0 0 0 0 0 0 0 0 0 979 978 976 976 975 975 975 975 975 973 973 973 973 973 973 975 975 975 976 976 976 976 976 976 976 976 976 976 976 976 976 976 976 976 976 976 978 978 978 979 981 981 981 982 984 984 984 984 984 984 984 982 981 981 981 979 979 979 981 981 981 981 982 984 984 984 984 984 984 982 981 981 979 976 975 973 972 970 969 967 964 964 963 961 960 959 957 956 954 953 953 951 0 0 0 0 0 0 0 0 0 0 0 0 0 0 0 796 796 796 796 795 795 795 794 793 793 792 790 790 790 789 0 0 0 0 0 0 0 0 0 0 0 0 0 0 0 0 0 0 0 0 0 0 0 0 0 0 0 0 0 0 0 0 0 0 0 0 0 0 0 0 0 0 0 0 0 0 0 0 0 0 0 0 0 0 0 0 0 0 0 0 0 0 0 0 0 0 0 0 0 0 0 0 0 0 0 0 0 0 0 0 0 0 0 0 0 0 0 0 0 0 0 0 0 0 0 0 0 0 0 0 0 896 908 920 928 936 941 947 951 956 0 0 0 0 0 0 0 0 0 0 0 0 0 0 0 0 0 0 0 973 972 969 969 967 967 967 966 966 964 964 964 964 963 963 964 964 966 966 967 967 967 967 967 967 966 966 966 966 966 966 966 966 966 966 966 966 966 964 964 964 964 964 964 964 964 966 966 967 967 969 970 972 972 973 975 976 976 978 978 976 978 976 0 0 0 0 0 0 0 0 0 0 0 0 0 0 0 0 0 0 0 0 0 0 0 0 0 0 0 0 973 973 973 975 975 978 0 0 0 0 0 0 0 0 0 0 0 0 0 0 0 0 0 0 0 0 0 0 0 0 0 0 0 0 0 0 0 0 0 0 0 0 0 0 0 0 0 0 0 0 0 0 0 0 0 0 0 0 0
0 0 0 0 0 0 0 0 0 0 0 0 0 0 0 0 0 0 0 0 0 0 0 0 0 0 0 0 0 0 0 0 0 0 0 0 0 0 0 0 0 0 0 0 0 0 0 0 0 0 0 0 0 0 0 0 0 0 0 0 0 0 0 0 0 0 0 0 0 0 0 0 0 0 0 0 0 0 0 0 976 975 973 973 973 973 972 972 972 972 972 972 972 972 972 973 973 975 975 975 975 975 975 975 975 975 975 975 975 975 975 975 975 975 975 975 975 976 978 978 979 979 981 981 982 982 982 982 982 982 981 979 979 979 978 978 978 979 979 981 981 982 982 982 984 984 982 982 981 979 979 978 976 973 972 970 969 967 966 963 961 960 959 957 956 954 954 953 951 951 950 950 0 0 0 0 0 0 0 0 0 0 0 0 0 0 796 796 796 796 796 796 795 794 794 793 792 791 791 789 790 789 788 0 0 0 0 0 0 0 0 0 0 0 0 0 0 0 0 0 0 0 0 0 0 0 0 0 0 0 0 0 0 0 0 0 0 0 0 0 0 0 0 0 0 0 0 0 0 0 0 0 0 0 0 0 0 0 0 0 0 0 0 0 0 0 0 0 0 0 0 0 0 0 0 0 0 0 0 0 0 0 0 0 0 0 0 0 0 0 0 0 0 0 0 0 0 0 0 0 0 0 901 913 922 929 937 943 948 954 954 0 0 0 0 0 0 0 0 0 0 0 0 0 0 0 0 0 0 0 0 969 967 967 967 966 966 966 964 964 964 964 964 964 964 964 966 966 966 966 967 967 967 967 967 967 967 966 966 966 966 966 966 966 966 966 966 966 964 964 964 964 964 964 964 964 964 966 966 967 967 969 970 970 973 975 976 976 976 0 0 0 0 0 0 0 0 0 0 0 0 0 0 0 0 0 0 0 0 0 0 0 0 0 0 0 0 0 0 0 0 0 0 0 0 0 0 0 0 0 0 0 0 0 0 0 0 0 0 0 0 0 0 0 0 0 0 0 0 0 0 0 0 0 0 0 0 0 0 0 0 0 0 0 0 0 0 0 0 0 0 0 0 0 0 0 0 0 0 0
0 0 0 0 0 0 0 0 0 0 0 0 0 0 0 0 0 0 0 0 0 0 0 0 0 0 0 0 0 0 0 0 0 0 0 0 0 0 0 0 0 0 0 0 0 0 0 0 0 0 0 0 0 0 0 0 0 0 0 0 0 0 0 0 0 0 0 0 0 0 0 0 0 0 0 0 0 0 0 0 0 0 973 972 972 972 970 970 969 969 969 969 969 970 970 972 972 972 973 973 973 973 973 973 973 973 973 972 972 972 972 972 972 972 972 972 973 973 975 975 976 976 978 978 979 979 981 979 981 979 978 978 978 976 976 975 976 976 976 978 979 981 981 982 982 982 982 981 979 979 978 976 975 973 972 970 969 966 963 961 960 959 957 956 953 953 951 950 950 948 948 947 0 0 0 0 0 0 0 0 0 0 0 0 0 0 797 797 797 797 797 796 796 795 794 794 793 792 791 790 789 789 788 789 789 0 0 0 0 0 0 0 0 0 0 0 0 0 0 0 0 0 0 0 0 0 0 0 0 0 0 0 0 0 0 0 0 0 0 0 0 0 0 0 0 0 0 0 0 0 0 0 0 0 0 0 0 0 0 0 0 0 0 0 0 0 0 0 0 0 0 0 0 0 0 0 0 0 0 0 0 0 0 0 0 0 0 0 0 0 0 0 0 0 0 0 0 0 0 0 0 0 0 917 925 932 939 944 950 954 956 0 0 0 0 0 0 0 0 0 0 0 0 0 0 0 0 0 0 0 0 0 966 966 966 966 966 964 964 964 964 964 964 964 964 964 966 966 967 967 967 967 967 967 966 966 966 966 966 964 964 964 964 964 964 964 964 964 963 963 963 963 963 963 963 963 964 964 964 964 966 967 967 970 972 973 975 0 0 0 0 0 0 0 0 0 0 0 0 0 0 0 0 0 0 0 0 0 0 0 0 0 0 0 0 0 0 0 0 0 0 0 0 0 0 0 0 0 0 0 0 0 0 0 0 0 0 0 0 0 0 0 0 0 0 0 0 0 0 0 0 0 0 0 0 0 0 0 0 0 0 0 0 0 0 0 0 0 0 0 0 0 0 0 0 0 0 0 0 0
0 0 0 0 0 0 0 0 0 0 0 0 0 0 0 0 0 0 0 0 0 0 0 0 0 0 0 0 0 0 0 0 0 0 0 0 0 0 0 0 0 0 0 0 0 0 0 0 0 0 0 0 0 0 0 0 0 0 0 0 0 0 0 0 0 0 0 0 0 0 0 0 0 0 0 0 0 0 0 0 0 0 0 0 969 969 969 967 967 967 967 966 967 967 967 967 969 970 970 970 970 970 970 970 970 970 970 969 969 969 969 969 969 969 969 969 970 970 970 972 973 973 975 975 975 976 978 978 978 976 976 976 976 975 975 973 973 973 975 975 976 978 978 979 981 981 979 979 978 978 976 975 973 972 970 969 966 964 961 960 957 956 954 953 951 950 948 948 948 947 947 946 0 0 0 0 0 0 0 0 0 0 0 0 0 0 798 798 798 798 798 797 797 796 795 794 793 792 792 791 790 790 789 789 789 788 789 789 0 0 0 0 0 0 0 0 0 0 0 0 0 0 0 0 0 0 0 0 0 0 0 0 0 0 0 0 0 0 0 0 0 0 0 0 0 0 0 0 0 0 0 0 0 0 0 0 0 0 0 0 0 0 0 0 0 0 0 0 0 0 0 0 0 0 0 0 0 0 0 0 0 0 0 0 0 0 0 0 0 0 0 0 0 0 0 0 0 0 0 0 0 0 909 920 926 933 940 944 950 956 0 0 0 0 0 0 0 0 0 0 0 0 0 0 0 0 0 0 0 0 0 0 964 964 964 964 964 964 964 963 963 963 963 963 963 964 964 964 966 966 966 967 966 966 964 964 964 964 963 963 963 963 963 961 961 961 961 961 960 960 960 961 960 960 960 960 961 961 961 963 963 964 966 967 970 0 0 0 0 0 0 0 0 0 0 0 0 0 0 0 0 0 0 0 0 0 0 0 0 0 0 0 0 0 0 0 0 0 0 0 0 0 0 0 0 0 0 0 0 0 0 0 0 0 0 0 0 0 0 0 0 0 0 0 0 0 0 0 0 0 0 0 0 0 0 0 0 0 0 0 0 0 0 0 0 0 0 0 0 0 0 0 0 0 0 0 0 0 0 0
0 0 0 0 0 0 0 0 0 0 0 0 0 0 0 0 0 0 0 0 0 0 0 0 0 0 0 0 0 0 0 0 0 0 0 0 0 0 0 0 0 0 0 0 0 0 0 0 0 0 0 0 0 0 0 0 0 0 0 0 0 0 0 0 0 0 0 0 0 0 0 0 0 0 0 0 0 0 0 0 0 0 0 0 0 966 966 964 964 964 963 963 964 964 964 966 966 967 967 967 967 967 967 967 967 967 967 966 966 964 964 964 964 964 964 964 966 967 967 969 969 970 970 970 972 972 973 973 975 975 973 973 972 972 970 969 969 970 969 972 972 973 975 976 978 978 978 978 976 976 973 973 972 970 967 966 964 961 960 957 954 953 951 950 948 947 947 947 946 946 946 944 944 0 0 0 0 0 0 0 0 0 0 0 0 0 799 799 800 800 799 799 798 797 796 795 794 793 792 792 791 791 790 790 789 789 789 789 789 789 788 0 0 0 0 0 0 0 0 0 0 0 0 0 0 0 0 0 0 0 0 0 0 0 0 0 0 0 0 0 0 0 0 0 0 0 0 0 0 0 0 0 0 0 0 0 0 0 0 0 0 0 0 0 0 0 0 0 0 0 0 0 0 0 0 0 0 0 0 0 0 0 0 0 0 0 0 0 0 0 0 0 0 0 0 0 0 0 0 0 0 904 913 922 929 934 941 946 951 954 0 0 0 0 0 0 0 0 0 0 0 0 0 0 0 0 0 0 0 0 0 0 0 961 961 961 963 961 961 961 961 963 963 961 963 963 964 964 964 964 964 964 964 964 963 961 961 961 960 960 960 960 960 959 959 959 959 959 957 957 957 957 959 959 959 957 957 959 959 960 960 961 963 0 0 0 0 0 0 0 0 0 0 0 0 0 0 0 0 0 0 0 0 0 0 0 0 0 0 0 0 0 0 0 0 0 0 0 0 0 0 0 0 0 0 0 0 0 0 0 0 0 0 0 0 0 0 0 0 0 0 0 0 0 0 0 0 0 0 0 0 0 0 0 0 0 0 0 0 0 0 0 0 0 0 0 0 0 0 0 0 0 0 0 0 0 0 0 0 0
0 0 0 0 0 0 0 0 0 0 0 0 0 0 0 0 0 0 0 0 0 0 0 0 0 0 0 0 0 0 0 0 0 0 0 0 0 0 0 0 0 0 0 0 0 0 0 0 0 0 0 0 0 0 0 0 0 0 0 0 0 0 0 0 0 0 0 0 0 0 0 0 0 0 0 0 0 0 0 0 0 0 0 0 0 0 963 963 961 961 961 961 961 961 961 961 963 964 966 966 966 966 966 964 964 963 963 963 961 961 960 960 960 960 960 961 961 961 963 963 964 966 966 967 967 967 969 969 970 970 969 969 967 967 967 964 963 963 964 966 969 970 972 973 976 976 976 975 975 973 972 969 969 966 964 963 961 959 956 954 951 950 948 947 947 946 946 944 944 944 944 944 943 0 0 0 0 0 0 0 0 0 0 0 0 0 801 801 801 801 801 800 799 798 797 796 795 795 794 793 792 792 791 791 791 790 790 790 790 789 788 789 788 787 0 0 0 0 0 0 0 0 0 0 0 0 0 0 0 0 0 0 0 0 0 0 0 0 0 0 0 0 0 0 0 0 0 0 0 0 0 0 0 0 0 0 0 0 0 0 0 0 0 0 0 0 0 0 0 0 0 0 0 0 0 0 0 0 0 0 0 0 0 0 0 0 0 0 0 0 0 0 0 0 0 0 0 0 0 0 0 906 916 924 930 936 941 946 950 954 0 0 0 0 0 0 0 0 0 0 0 0 0 0 0 0 0 0 0 0 0 0 0 960 960 960 960 960 960 960 960 960 960 960 960 961 961 961 961 961 961 961 961 961 960 959 959 957 957 957 956 956 956 956 954 954 954 954 954 954 954 954 954 954 954 954 954 954 954 956 957 0 0 0 0 0 0 0 0 0 0 0 0 0 0 0 0 0 0 0 0 0 0 0 0 0 0 0 0 0 0 0 0 0 0 0 0 0 0 0 0 0 0 0 0 0 0 0 0 0 0 0 0 0 0 0 0 0 0 0 0 0 0 0 0 0 0 0 0 0 0 0 0 0 0 0 0 0 0 0 0 0 0 0 0 0 0 0 0 0 0 0 0 0 0 0 0 0 0 0
0 0 0 0 0 0 0 0 0 0 0 0 0 0 0 0 0 0 0 0 0 0 0 0 0 0 0 0 0 0 0 0 0 0 0 0 0 0 0 0 0 0 0 0 0 0 0 0 0 0 0 0 0 0 0 0 0 0 0 0 0 0 0 0 0 0 0 0 0 0 0 0 0 0 0 0 0 0 0 0 0 0 0 0 0 0 0 960 960 959 959 959 959 959 960 960 960 961 963 963 963 963 963 961 961 960 960 959 959 957 957 956 956 956 956 956 957 957 959 959 960 961 961 963 963 961 963 964 966 966 0 0 0 961 960 960 959 959 959 960 963 964 967 970 972 973 973 973 972 970 967 966 964 961 960 959 957 954 953 950 948 947 946 946 944 943 943 943 943 943 943 941 940 0 0 0 0 0 0 0 0 0 0 0 0 0 802 802 802 802 802 801 801 800 799 798 797 796 795 794 793 793 792 792 792 791 791 791 790 790 789 789 788 788 787 786 786 785 785 785 786 784 0 0 0 0 0 0 0 0 0 0 0 0 0 0 0 0 0 0 0 0 0 0 0 0 0 0 0 0 0 0 0 0 0 0 0 0 0 0 0 0 0 0 0 0 0 0 0 0 0 0 0 0 0 0 0 0 0 0 0 0 0 0 0 0 0 0 0 0 0 0 0 0 0 0 0 0 0 0 0 910 918 925 932 937 941 946 950 954 0 0 0 0 0 0 0 0 0 0 0 0 0 0 0 0 0 0 0 0 0 0 0 0 957 957 957 959 957 959 959 959 959 959 959 959 959 959 959 959 959 959 957 957 956 954 954 954 953 953 953 953 951 951 950 950 950 950 950 950 950 950 951 951 951 951 951 950 951 0 0 0 0 0 0 0 0 0 0 0 0 0 0 0 0 0 0 0 0 0 0 0 0 0 0 0 0 0 0 0 0 0 0 0 0 0 0 0 0 0 0 0 0 0 0 0 0 0 0 0 0 0 0 0 0 0 0 0 0 0 0 0 0 0 0 0 0 0 0 0 0 0 0 0 0 0 0 0 0 0 0 0 0 0 0 0 0 0 0 0 0 0 0 0 0 0 0 0 0 0
0 0 0 0 0 0 0 0 0 0 0 0 0 0 0 0 0 0 0 0 0 0 0 0 0 0 0 0 0 0 0 0 0 0 0 0 0 0 0 0 0 0 0 0 0 0 0 0 0 0 0 0 0 0 0 0 0 0 0 0 0 0 0 0 0 0 0 0 0 0 0 0 0 0 0 0 0 0 0 0 0 0 0 0 0 0 0 957 957 957 956 956 956 956 957 957 959 959 960 960 960 960 959 959 959 957 956 954 954 953 953 951 951 951 951 951 953 953 954 954 956 957 957 959 957 957 959 959 960 0 0 0 0 0 0 0 953 953 953 954 959 960 963 964 967 969 969 969 967 966 964 961 960 957 956 954 953 950 948 947 946 944 943 941 941 941 941 941 941 941 941 941 940 0 0 0 0 0 0 0 0 0 0 0 0 0 803 804 804 804 803 803 802 801 800 799 798 797 797 796 795 794 793 793 793 792 792 792 791 791 790 790 789 788 788 787 787 787 786 786 786 785 785 784 784 782 781 780 780 780 779 779 779 781 0 0 0 0 0 0 0 0 0 0 0 0 0 0 0 0 0 0 0 0 0 0 0 0 0 0 0 0 0 0 0 0 0 0 0 0 0 0 0 0 0 0 0 0 0 0 0 0 0 0 0 0 0 0 0 0 0 0 0 0 0 0 0 0 0 0 0 912 920 928 932 936 941 946 950 954 0 0 0 0 0 0 0 0 0 0 0 0 0 0 0 0 0 0 0 0 0 0 0 0 954 954 956 956 956 956 956 956 956 954 954 956 956 956 954 954 954 954 953 953 951 950 950 950 948 948 948 948 947 947 946 946 947 946 947 947 947 947 948 948 0 0 0 0 0 0 0 0 0 0 0 0 0 0 0 0 0 0 0 0 0 0 0 0 0 0 0 0 0 0 0 0 0 0 0 0 0 0 0 0 0 0 0 0 0 0 0 0 0 0 0 0 0 0 0 0 0 0 0 0 0 0 0 0 0 0 0 0 0 0 0 0 0 0 0 0 0 0 0 0 0 0 0 0 0 0 0 0 0 0 0 0 0 0 0 0 0 0 0 0 0 0 0 0 0 0
0 0 0 0 0 0 0 0 0 0 0 0 0 0 0 0 0 0 0 0 0 0 0 0 0 0 0 0 0 0 0 0 0 0 0 0 0 0 0 0 0 0 0 0 0 0 0 0 0 0 0 0 0 0 0 0 0 0 0 0 0 0 0 0 0 0 0 0 0 0 0 0 0 0 0 0 0 0 0 0 0 0 0 0 0 0 0 954 954 954 954 954 954 954 954 954 956 957 957 957 957 957 957 956 954 954 953 951 950 948 948 947 947 947 947 947 947 948 950 950 951 951 953 953 953 951 953 953 954 953 0 0 0 0 947 946 947 947 947 948 953 954 956 957 0 0 0 961 0 959 957 954 954 951 951 950 948 947 946 943 941 940 940 940 940 940 940 940 940 940 940 940 939 937 0 0 0 0 0 0 0 0 0 0 0 0 0 805 805 805 805 804 803 803 802 801 800 799 798 797 797 796 795 794 794 794 793 793 792 792 791 791 790 789 789 788 788 788 788 787 787 786 786 785 784 784 782 782 781 781 780 780 780 780 780 780 780 780 779 778 0 0 0 0 0 0 0 0 0 0 0 0 0 0 0 0 0 0 0 0 0 0 0 0 0 0 0 0 0 0 0 0 0 0 0 0 0 0 0 0 0 0 0 0 0 0 0 0 0 0 0 0 0 0 0 0 0 0 0 0 0 916 922 928 933 937 941 946 950 953 0 0 0 0 0 0 0 0 0 0 0 0 0 0 0 0 0 0 0 0 0 0 0 0 951 951 953 953 951 951 951 951 951 951 951 951 951 951 951 951 950 950 948 948 947 946 946 946 944 944 943 943 943 943 941 941 943 943 943 0 0 0 0 0 0 0 0 0 0 0 0 0 0 0 0 0 0 0 0 0 0 0 0 0 0 0 0 0 0 0 0 0 0 0 0 0 0 0 0 0 0 0 0 0 0 0 0 0 0 0 0 0 0 0 0 0 0 0 0 0 0 0 0 0 0 0 0 0 0 0 0 0 0 0 0 0 0 0 0 0 0 0 0 0 0 0 0 0 0 0 0 0 0 0 0 0 0 0 0 0 0 0 0 0 0 0 0 0 0 0
0 0 0 0 0 0 0 0 0 0 0 0 0 0 0 0 0 0 0 0 0 0 0 0 0 0 0 0 0 0 0 0 0 0 0 0 0 0 0 0 0 0 0 0 0 0 0 0 0 0 0 937 937 0 0 0 0 0 0 0 0 0 0 0 0 0 0 0 0 0 0 0 0 0 0 0 0 0 0 0 0 0 0 0 0 0 0 0 951 951 951 951 951 951 951 951 953 954 954 954 954 954 954 953 951 950 948 947 946 944 944 943 943 943 943 943 943 944 946 946 947 948 948 948 948 947 947 947 947 0 0 0 0 940 940 940 940 941 943 943 947 947 950 0 0 0 0 0 953 953 951 950 948 947 946 944 943 943 941 940 939 939 939 937 937 937 939 939 939 940 940 939 939 937 0 0 0 0 0 0 0 0 0 0 0 0 0 807 807 807 806 806 805 804 804 803 802 800 800 799 798 798 797 796 796 795 795 794 794 793 793 792 791 790 790 789 789 789 789 788 788 788 787 787 786 785 784 783 782 781 781 781 781 781 780 780 780 779 779 779 778 777 776 776 775 774 774 774 772 772 771 770 769 768 767 767 767 766 766 766 766 766 766 765 764 764 0 0 0 0 0 0 0 0 0 0 0 0 0 0 0 0 0 0 0 0 0 0 0 0 0 0 0 0 0 0 0 0 0 0 0 916 924 929 934 937 941 944 950 951 0 0 0 0 0 0 0 0 0 0 0 0 0 0 0 0 0 0 0 0 0 0 0 0 948 948 948 948 948 948 948 948 948 947 947 947 948 948 947 947 947 946 946 944 943 943 941 941 941 941 940 940 940 940 0 0 0 0 0 0 0 0 0 0 0 0 0 0 0 0 0 0 0 0 0 0 0 0 0 0 0 0 0 0 0 0 0 0 0 0 0 0 0 0 0 0 0 0 0 0 0 0 0 0 0 0 0 0 0 0 0 0 0 0 0 0 0 0 0 0 0 0 0 0 0 0 0 0 0 0 0 0 0 0 0 0 0 0 0 0 0 0 0 0 0 0 0 0 0 0 0 0 0 0 0 0 0 0 0 0 0 0 0 0 0 0 0 0 0 0
0 0 0 0 0 0 0 0 0 0 0 0 0 0 0 0 0 0 0 0 0 0 0 0 0 0 0 0 0 0 0 0 0 0 0 0 0 0 0 0 0 0 0 0 0 0 0 0 0 0 939 937 936 934 0 0 0 0 0 0 0 0 0 0 0 0 0 0 0 0 0 0 0 0 0 0 0 0 0 0 0 0 0 0 0 0 0 0 950 950 950 948 948 950 950 950 950 951 951 953 951 951 951 950 948 947 946 944 943 941 940 940 939 939 939 939 940 940 941 943 944 944 944 944 944 943 943 941 940 939 0 0 0 933 933 933 936 936 937 939 940 941 943 944 0 0 0 0 0 0 944 943 943 941 941 941 940 939 937 937 936 936 936 936 936 936 937 937 939 939 939 937 937 936 0 0 0 0 0 0 0 0 0 0 0 0 0 808 808 808 808 808 807 806 805 804 804 802 801 800 800 799 799 798 797 797 797 796 795 795 794 793 792 792 791 791 790 790 790 790 789 789 789 788 787 786 785 784 783 782 782 781 781 781 781 780 780 781 780 779 778 777 776 776 776 776 775 775 774 773 772 771 770 769 769 768 768 767 767 767 767 767 766 766 766 765 764 765 764 764 764 764 764 764 762 762 762 762 762 762 762 762 762 762 763 763 765 767 770 774 0 0 0 0 0 0 0 0 0 0 0 917 924 929 934 937 941 944 948 0 0 0 0 0 0 0 0 0 0 0 0 0 0 0 0 0 0 0 0 0 0 0 0 0 946 944 944 944 944 944 944 944 944 943 944 944 944 944 944 0 0 0 0 0 0 0 0 0 0 0 0 0 0 0 0 0 0 0 0 0 0 0 0 0 0 0 0 0 0 0 0 0 0 0 0 0 0 0 0 0 0 0 0 0 0 0 0 0 0 0 0 0 0 0 0 0 0 0 0 0 0 0 0 0 0 0 0 0 0 0 0 0 0 0 0 0 0 0 0 0 0 0 0 0 0 0 0 0 0 0 0 0 0 0 0 0 0 0 0 0 0 0 0 0 0 0 0 0 0 0 0 0 0 0 0 0 0 0 0 0 0 0 0 0 0 0 0 0 0 0
0 0 0 0 0 0 0 0 0 0 0 0 0 0 0 0 0 0 0 0 0 0 0 0 0 0 0 0 0 0 0 0 0 0 0 0 0 0 0 0 0 0 0 0 0 0 0 0 0 0 937 936 936 934 932 0 0 0 0 0 0 0 0 0 0 0 0 0 0 0 0 0 0 0 0 0 0 0 0 0 0 0 0 0 0 0 0 0 950 947 947 947 947 947 947 947 948 948 950 950 950 948 948 947 946 944 943 941 939 939 937 936 936 936 936 936 937 937 939 940 940 941 941 941 941 940 940 939 937 934 0 930 929 928 928 929 930 932 933 933 936 936 937 939 0 0 0 0 940 0 939 939 939 937 937 937 936 936 934 933 933 933 933 934 934 936 936 936 937 937 937 937 936 934 0 0 0 0 0 0 0 0 0 0 0 0 0 810 810 810 810 810 809 808 807 806 805 804 803 802 801 801 800 800 799 799 798 798 797 797 796 795 794 793 793 792 792 792 791 791 791 791 790 790 789 788 787 785 784 783 783 782 782 781 781 781 781 780 779 779 778 777 777 777 776 776 776 776 775 774 773 773 772 771 770 769 769 769 768 768 768 768 768 767 767 766 766 766 765 765 765 764 764 764 763 763 762 762 762 762 762 762 762 762 763 763 765 768 771 774 0 0 0 0 0 0 0 0 0 0 913 918 924 930 934 936 940 944 946 0 0 0 0 0 0 0 0 0 0 0 0 0 0 0 0 0 0 0 0 0 0 0 0 0 940 940 940 941 940 940 940 940 940 940 940 941 941 0 0 0 0 0 0 0 0 0 0 0 0 0 0 0 0 0 0 0 0 0 0 0 0 0 0 0 0 0 0 0 0 0 0 0 0 0 0 0 0 0 0 0 0 0 0 0 0 0 0 0 0 0 0 0 0 0 0 0 0 0 0 0 0 0 0 0 0 0 0 0 0 0 0 0 0 0 0 0 0 0 0 0 0 0 0 0 0 0 0 0 0 0 0 0 0 0 0 0 0 0 0 0 0 0 0 0 0 0 0 0 0 0 0 0 0 0 0 0 0 0 0 863 863 863 863 863 0 0 0 0 0 0
0 0 0 0 0 0 0 0 0 0 0 0 0 0 0 0 0 0 0 0 0 0 0 0 0 0 0 0 0 0 0 0 0 0 0 0 0 0 0 0 0 0 0 0 0 0 0 0 0 0 937 936 933 933 933 0 0 0 0 0 0 0 0 0 0 0 0 0 0 0 0 0 0 0 0 0 0 0 0 0 0 0 0 0 0 0 0 0 947 946 946 944 944 946 946 946 946 947 947 947 947 946 944 943 943 941 940 939 937 936 934 934 933 933 933 934 934 936 936 937 939 939 940 940 939 939 939 936 934 932 930 929 928 928 928 926 929 930 930 932 932 932 932 933 933 933 0 933 934 933 934 934 934 934 934 933 933 932 932 932 932 932 932 933 933 933 934 936 936 936 936 936 934 933 932 0 0 0 0 0 0 0 0 0 0 0 0 812 812 812 812 811 811 810 809 808 807 806 805 804 803 802 802 801 801 801 800 799 799 798 798 797 796 795 794 794 793 793 793 793 793 792 792 791 790 789 788 787 786 785 784 783 782 782 782 781 781 781 780 780 779 778 778 777 777 776 776 776 776 775 774 774 773 772 771 770 770 770 770 769 769 769 769 768 768 768 767 767 766 766 766 765 765 764 764 764 763 763 762 762 762 762 762 763 763 764 766 768 771 774 0 0 0 0 0 0 0 0 0 0 913 920 924 930 933 936 940 943 946 0 0 0 0 0 0 0 0 0 0 0 0 0 0 0 0 0 0 0 0 0 0 0 0 0 937 937 937 937 937 936 936 936 936 934 936 936 0 0 0 0 0 0 0 0 0 0 0 0 0 0 0 0 0 0 0 0 0 0 0 0 0 0 0 0 0 0 0 0 0 0 0 0 0 0 0 0 0 0 0 0 0 0 0 0 0 0 0 0 0 0 0 0 0 0 0 0 0 0 0 0 0 0 0 0 0 0 0 0 0 0 0 0 0 0 0 0 0 0 0 0 0 0 0 0 0 0 0 0 0 863 863 863 863 863 863 863 863 862 862 862 862 861 861 861 861 0 0 0 0 0 0 0 0 0 0 0 862 862 862 862 862 862 862 862 863 0 0 0 0 0
0 0 0 0 0 0 0 0 0 0 0 0 0 0 0 0 0 0 0 0 0 0 0 0 0 0 0 0 0 0 0 0 0 0 0 0 0 0 0 0 0 0 0 0 0 0 0 0 0 0 937 934 934 933 930 0 0 0 0 0 0 0 0 0 0 0 0 0 0 0 0 0 0 0 0 0 0 0 0 0 0 0 0 0 0 0 0 0 946 944 944 944 943 944 944 944 944 944 946 946 944 944 943 941 940 940 937 936 936 934 933 932 932 932 932 932 933 933 934 934 936 937 937 937 937 937 936 933 932 930 929 928 926 926 926 926 926 928 929 930 930 929 929 930 930 930 0 930 929 932 932 930 932 930 930 930 930 930 930 930 930 930 930 930 932 933 933 934 934 934 934 934 933 933 932 0 0 0 0 0 0 0 0 0 0 0 0 814 814 814 814 813 813 812 811 810 809 808 807 806 805 805 804 803 803 802 802 801 801 800 799 798 798 797 796 796 795 795 795 794 794 794 794 793 792 791 790 789 787 786 785 784 784 783 783 782 782 781 781 780 779 779 779 778 778 777 777 776 776 776 775 774 774 773 772 772 771 771 771 771 771 770 770 770 769 769 768 768 768 767 767 766 766 765 765 764 764 763 763 763 763 762 763 763 763 765 766 768 771 774 0 0 0 0 0 0 0 0 0 0 913 920 924 929 933 936 937 941 0 0 0 0 0 0 0 0 0 0 0 0 0 0 0 0 0 0 0 0 0 0 0 0 0 0 933 933 933 933 933 933 932 932 932 930 932 932 0 0 0 0 0 0 0 0 0 0 0 0 0 0 0 0 0 0 0 0 0 0 0 0 0 0 0 0 0 0 0 0 0 0 0 0 0 0 0 0 0 0 0 0 0 0 0 0 0 0 0 0 0 0 0 863 863 864 864 864 864 864 0 0 0 0 0 0 0 0 0 0 0 0 0 0 0 0 0 0 0 0 0 0 0 0 860 860 860 861 861 862 862 862 862 862 862 862 862 862 861 861 861 861 861 860 860 860 860 859 859 859 859 859 860 860 861 861 861 861 861 861 861 861 861 861 861 861 861 0 0 0 0 0
0 0 0 0 0 0 0 0 0 0 0 0 0 0 0 0 0 0 0 0 0 0 0 0 0 0 0 0 0 0 0 0 0 0 0 0 0 0 0 0 0 0 0 0 0 0 0 0 0 0 0 934 933 932 930 0 0 0 0 0 0 0 0 0 0 0 0 0 0 0 0 0 0 0 0 0 0 0 0 0 0 0 0 0 0 0 0 0 943 941 941 941 941 941 943 943 943 943 943 943 943 941 940 940 937 937 936 934 933 932 932 930 930 930 930 930 930 932 933 934 934 936 936 936 936 934 933 933 930 929 928 926 926 925 925 925 926 926 928 928 928 929 928 929 929 928 928 928 926 929 929 929 929 928 928 928 929 929 929 929 929 929 929 930 930 932 932 933 933 933 933 933 933 932 930 0 0 0 0 0 0 0 0 0 0 0 0 815 816 816 816 815 815 814 813 812 811 810 809 808 807 807 806 805 805 804 804 803 802 802 801 800 799 799 798 797 797 797 796 796 796 796 795 795 794 793 792 791 789 788 787 786 785 784 784 783 783 782 782 781 780 780 780 779 779 778 778 777 777 776 776 775 775 774 773 773 772 772 772 772 772 772 771 771 771 770 770 769 769 768 768 768 767 766 766 765 764 764 764 763 763 763 763 764 764 765 767 769 771 774 0 0 0 0 0 0 0 0 0 905 913 920 924 928 932 934 937 940 0 0 0 0 0 0 0 0 0 0 0 0 0 0 0 0 0 0 0 0 0 0 0 0 0 0 930 930 930 930 930 929 928 929 928 926 928 0 0 0 0 0 0 0 0 0 0 0 0 0 0 0 0 0 0 0 0 0 0 0 0 0 0 0 0 0 0 0 0 0 0 0 0 0 0 0 0 0 0 0 0 0 0 0 0 0 0 0 859 859 860 860 861 861 862 863 863 863 863 863 863 862 863 862 862 861 861 861 0 0 0 861 861 860 860 860 860 860 860 860 859 859 859 859 859 859 859 860 860 860 861 861 861 861 861 861 861 860 860 860 860 859 859 859 859 859 859 857 857 857 857 859 859 859 860 860 860 860 860 860 860 860 860 860 860 860 860 860 0 0 0 0
0 0 0 0 0 0 0 0 0 0 0 0 0 0 0 0 0 0 0 0 0 0 0 0 0 0 0 0 0 0 0 0 0 0 0 0 0 0 0 0 0 0 0 0 0 0 0 0 0 0 0 934 933 932 930 0 0 0 0 0 0 0 0 0 0 0 0 0 0 0 0 0 0 0 0 0 0 0 0 0 0 0 0 0 0 0 0 0 940 940 939 939 939 940 940 940 940 940 940 940 940 939 939 937 936 934 934 933 932 930 930 929 929 929 929 929 929 930 932 932 933 934 934 934 933 933 933 930 929 928 926 926 925 925 925 925 926 926 928 928 928 928 928 928 926 926 926 926 925 926 928 925 926 926 926 928 928 928 928 928 928 928 929 929 929 930 930 932 932 932 932 932 932 930 929 0 0 0 0 0 0 0 0 0 0 0 0 819 819 819 819 818 818 816 815 814 813 812 811 810 809 808 808 807 807 806 806 805 805 804 803 802 801 800 800 799 799 798 798 798 797 797 797 796 796 795 794 793 791 790 789 788 787 786 785 785 784 784 783 782 782 781 781 781 780 779 779 779 778 777 776 776 776 775 775 774 774 774 773 774 773 773 773 773 772 772 771 771 770 770 769 769 768 768 767 766 766 765 765 764 764 764 764 764 764 765 768 769 771 0 0 0 0 0 0 0 0 0 0 904 912 918 924 928 929 933 936 0 0 0 0 0 0 0 0 0 0 0 0 0 0 0 0 0 0 0 0 0 0 0 0 0 0 0 928 928 928 926 926 926 925 925 924 922 0 0 0 0 0 0 0 0 0 0 0 0 0 0 0 0 0 0 0 0 0 0 0 0 0 0 0 0 0 0 0 0 0 0 0 0 0 0 0 0 0 0 0 0 0 0 0 0 0 855 854 856 856 856 857 857 859 859 860 861 861 861 862 862 861 861 861 861 861 861 860 860 860 860 860 860 859 859 859 859 859 857 857 857 856 856 856 856 856 857 857 857 859 859 860 860 860 860 860 860 859 859 859 859 857 857 857 857 857 857 857 856 856 856 857 857 857 857 859 859 859 859 859 859 859 859 859 859 859 859 859 859 0 0 0 0
0 0 0 0 0 0 0 0 0 0 0 0 0 0 0 0 0 0 0 0 0 0 0 0 0 0 0 0 0 0 0 0 0 0 0 0 0 0 0 0 0 0 0 0 0 0 0 0 0 0 0 934 934 933 0 0 0 0 0 0 0 0 0 0 0 0 0 0 0 0 0 0 0 0 0 0 0 0 0 0 0 0 0 0 0 0 0 0 937 937 936 937 937 937 937 937 937 937 937 937 937 936 936 934 934 933 932 930 930 929 929 928 928 928 928 928 929 929 930 930 932 933 933 933 933 932 930 929 928 926 925 925 925 924 924 925 925 926 926 926 926 926 926 926 925 925 925 925 925 925 925 925 925 926 926 926 926 928 928 928 928 928 928 928 928 929 929 929 930 930 930 930 930 929 928 926 0 0 0 0 0 0 0 0 0 0 0 821 821 821 821 820 820 819 818 816 814 814 813 812 811 810 809 809 808 808 808 807 807 806 805 805 803 803 802 801 800 800 799 799 799 799 798 798 797 797 796 795 793 792 791 790 789 788 787 787 786 785 785 784 783 783 782 782 781 781 780 780 779 779 778 777 776 776 776 776 775 775 775 775 775 775 775 774 774 773 773 772 772 771 771 770 770 769 768 768 767 766 766 765 765 765 765 765 765 767 769 770 773 0 0 794 0 0 0 0 0 884 894 903 913 917 921 926 928 930 933 0 0 0 0 0 0 0 0 0 0 0 0 0 0 0 0 0 0 0 0 0 0 0 0 0 0 925 925 925 925 925 924 922 922 921 921 920 0 0 0 0 0 0 0 0 0 0 0 0 0 0 0 0 0 0 0 0 0 0 0 0 0 0 0 0 0 0 0 0 0 0 0 0 0 0 0 0 0 0 0 0 0 0 0 852 853 853 854 854 854 854 855 856 856 857 857 859 860 860 860 860 860 860 860 860 859 859 859 859 859 859 857 857 857 857 856 856 856 855 855 855 855 855 855 855 855 855 856 856 856 857 857 859 859 859 859 859 857 857 857 856 856 856 856 856 856 856 856 856 855 856 856 856 856 857 857 857 857 857 857 857 857 857 857 857 857 857 857 856 0 0 0 0
0 0 0 0 0 0 0 0 0 0 0 0 0 0 0 0 0 0 0 0 0 0 0 0 0 0 0 0 0 0 0 0 0 0 0 0 0 0 0 0 0 0 0 0 0 0 0 0 0 0 0 0 933 933 0 0 0 0 0 0 0 0 0 0 0 0 0 0 0 0 0 0 0 0 0 0 0 0 0 0 0 0 0 0 0 0 0 0 934 934 934 934 934 936 936 936 936 936 936 934 934 934 933 933 932 932 932 930 929 929 928 928 926 926 926 926 928 928 929 930 930 932 932 932 930 930 929 928 926 925 925 925 924 924 924 924 924 925 925 926 925 925 925 925 925 925 925 925 924 924 924 924 924 925 925 925 926 926 926 926 926 926 926 926 928 928 928 928 929 929 929 929 929 928 928 926 0 0 0 0 0 0 0 0 0 0 0 0 823 823 823 823 822 821 820 818 816 815 814 814 813 812 811 810 810 810 809 809 808 808 807 806 805 805 804 803 802 802 801 801 801 801 800 800 799 798 797 797 795 794 793 792 791 790 789 788 788 787 787 786 785 784 784 784 783 782 782 781 781 780 779 778 778 777 776 776 776 776 776 776 776 776 776 776 775 775 774 774 773 773 772 772 771 770 770 769 768 768 767 767 766 766 766 766 767 767 769 771 0 0 0 799 0 0 0 0 872 882 894 904 912 917 921 925 926 929 932 0 0 0 0 0 0 0 0 0 0 0 0 0 0 0 0 0 0 0 0 0 0 0 0 0 0 921 922 922 922 921 921 921 920 918 917 916 0 0 0 0 0 0 0 0 0 0 0 0 0 0 0 0 0 0 0 0 0 0 0 0 0 0 0 0 0 0 0 0 0 0 0 0 0 0 0 0 0 0 0 0 0 0 849 850 852 852 852 852 853 853 853 854 855 855 856 857 857 859 859 859 859 859 857 857 857 857 857 856 856 856 856 856 855 855 854 854 854 853 853 853 853 853 853 853 854 854 854 855 855 856 856 856 856 856 856 856 856 856 855 855 855 855 855 854 854 855 855 855 855 855 855 855 855 856 856 856 856 855 855 855 855 856 856 856 856 856 856 855 0 0 0 0
0 0 0 0 0 0 0 0 0 0 0 0 0 0 0 0 0 0 0 0 0 0 0 0 0 0 0 0 0 0 0 0 0 0 0 0 0 0 0 0 0 0 0 0 0 0 0 0 0 0 0 0 0 0 0 0 0 0 0 0 0 0 0 0 0 0 0 0 0 0 0 0 0 0 0 0 0 0 0 0 0 0 0 0 0 0 0 932 932 932 932 932 933 933 933 933 933 933 933 933 933 932 932 932 930 930 930 929 929 928 928 926 925 925 925 925 926 926 928 929 929 930 930 930 930 929 928 928 926 925 925 924 924 924 924 924 924 925 925 925 925 925 925 925 925 924 924 924 922 922 924 924 924 924 924 925 925 925 925 925 925 925 925 925 926 926 926 926 926 928 928 928 928 926 926 925 0 0 0 0 0 0 0 0 0 0 0 0 826 825 825 824 824 823 822 821 819 818 816 815 815 814 813 812 812 811 811 811 810 809 809 808 807 806 806 805 804 804 803 803 803 802 802 802 801 800 799 798 797 796 795 794 793 792 791 791 790 789 789 788 787 786 786 785 785 784 784 783 783 782 781 780 779 778 778 778 777 777 777 777 777 777 777 776 776 776 776 775 775 774 774 773 772 772 771 770 770 769 769 768 768 767 767 767 768 768 770 0 0 0 793 803 0 0 0 0 872 882 892 903 912 916 921 924 925 928 929 0 0 0 0 0 0 0 0 0 0 0 0 0 0 0 0 0 0 0 0 0 0 0 0 0 920 920 920 920 920 920 920 918 917 916 914 912 0 0 0 0 0 0 0 0 0 0 0 0 0 0 0 0 0 0 0 0 0 0 0 0 0 0 0 0 0 0 0 0 0 0 0 0 0 0 0 0 0 0 0 0 0 847 848 848 849 849 849 850 850 852 852 852 853 854 854 855 856 856 856 856 856 856 856 856 855 855 855 855 855 854 854 854 854 853 853 852 852 852 852 850 850 852 852 852 852 852 853 853 854 854 854 855 855 855 855 855 854 854 854 854 854 853 853 853 853 853 853 854 854 854 854 854 854 854 854 854 854 854 854 854 854 854 854 854 854 854 854 854 0 0 0 0
0 0 0 0 0 0 0 0 0 0 0 0 0 0 0 0 0 0 0 0 0 0 0 0 0 0 0 0 0 0 0 0 0 0 0 0 0 0 0 0 0 0 0 0 0 0 0 0 0 0 0 0 0 0 0 0 0 0 0 0 0 0 0 0 0 0 0 0 0 0 0 0 0 0 0 0 0 0 0 0 0 0 0 0 0 0 0 928 928 929 929 930 930 932 932 932 932 932 932 932 932 930 930 930 929 929 929 928 928 926 926 926 925 925 924 924 925 925 926 926 928 929 929 929 929 928 928 926 925 924 924 922 922 922 922 924 924 925 925 925 925 925 924 924 924 922 922 922 921 921 921 921 922 922 922 924 924 924 924 924 924 924 924 924 924 925 925 925 925 926 926 926 926 925 925 922 922 0 0 0 0 0 0 0 0 0 0 0 828 828 827 826 826 825 824 823 822 820 819 818 818 816 815 814 814 813 813 813 812 812 811 810 809 808 807 807 806 806 805 805 805 804 804 804 803 802 801 800 799 798 797 796 795 794 793 793 792 791 791 790 789 788 787 787 787 786 785 785 784 783 783 782 781 780 779 779 779 779 779 778 778 778 778 778 777 777 776 776 776 776 775 774 774 773 773 772 771 771 770 770 769 769 769 769 769 770 771 0 0 0 798 0 0 0 0 862 873 882 891 901 909 914 920 921 924 925 0 0 0 0 0 0 0 0 0 0 0 0 0 0 0 0 0 0 0 0 0 0 0 0 0 0 918 918 918 918 918 918 917 917 914 914 912 910 0 0 0 0 0 0 0 0 0 0 0 0 0 0 0 0 0 0 0 0 0 0 0 0 0 0 0 0 0 0 0 0 0 0 0 0 0 0 0 0 0 0 0 0 845 846 846 847 848 848 848 849 849 849 850 850 852 852 853 853 854 854 855 855 855 854 854 854 854 854 853 853 853 853 853 852 852 852 850 850 850 849 849 849 849 849 849 850 850 850 852 852 852 853 853 853 853 853 853 853 853 853 853 852 852 852 852 852 852 852 852 852 852 853 853 853 853 853 853 853 853 853 853 853 853 853 853 853 853 853 853 853 0 0 0 0
0 0 0 0 0 0 0 0 0 0 0 0 0 0 0 0 0 0 0 0 0 0 0 0 0 0 0 0 0 0 0 0 0 0 0 0 0 0 0 0 0 0 0 0 0 0 0 0 0 0 0 0 0 0 0 0 0 0 0 0 0 0 0 0 0 0 0 0 0 0 0 0 0 0 0 0 0 0 0 0 0 0 0 0 0 0 924 925 926 926 926 928 929 929 929 930 930 930 930 930 929 929 929 929 929 929 929 928 928 926 926 925 924 924 924 924 924 924 925 926 928 928 928 929 929 928 926 926 925 924 924 922 922 922 922 922 924 924 924 924 924 924 922 922 922 921 921 921 921 920 920 920 921 921 921 921 922 0 922 922 922 922 922 922 922 924 924 924 924 925 925 925 925 924 924 922 922 0 0 0 0 0 0 0 0 0 0 0 830 830 829 829 828 827 826 825 824 823 822 821 820 819 818 816 816 815 815 815 814 814 813 812 811 810 809 809 808 807 807 807 806 806 806 805 805 804 803 802 801 800 799 798 798 797 796 795 794 794 793 792 791 790 790 789 788 788 788 787 786 785 785 784 783 782 781 781 781 780 780 780 780 780 780 780 779 779 778 777 777 776 776 776 775 775 774 774 773 773 772 772 771 770 770 770 771 771 772 0 0 792 801 0 0 0 854 862 873 882 892 900 908 913 917 920 921 924 0 0 0 0 0 0 0 0 0 0 0 0 0 0 0 0 0 0 0 0 0 0 0 0 0 916 917 917 917 917 917 917 916 914 913 912 909 908 0 0 0 0 0 0 0 0 0 0 0 0 0 0 0 0 0 0 0 0 0 0 0 0 0 0 0 0 0 0 0 0 0 0 0 0 0 0 0 0 0 0 844 844 845 845 846 846 847 847 847 847 848 848 848 849 849 850 850 852 852 853 853 853 853 853 853 853 852 852 852 852 850 850 850 850 850 849 849 849 848 848 848 848 848 848 848 848 849 849 849 850 850 850 850 850 852 852 852 852 850 850 850 850 850 850 850 850 850 850 850 850 850 850 852 852 852 852 852 852 852 852 852 852 852 852 852 852 852 852 850 850 0 0 0 0
0 0 0 0 0 0 0 0 0 0 0 0 0 0 0 0 0 0 0 0 0 0 0 0 0 0 0 0 0 0 0 0 0 0 0 0 0 0 0 0 0 0 0 0 0 0 0 0 0 0 0 0 0 0 0 0 0 0 0 0 0 0 0 0 0 0 0 0 0 0 0 0 0 0 0 0 0 0 0 0 0 0 0 0 0 922 922 922 922 924 925 925 926 928 928 928 928 929 929 929 929 929 928 928 929 929 929 928 928 926 926 925 924 924 922 924 924 924 925 925 926 926 928 928 928 926 926 925 924 924 922 922 922 922 922 922 924 924 924 924 924 924 924 922 922 921 921 920 920 920 920 920 920 920 920 920 921 921 921 921 922 922 922 922 921 921 922 922 922 924 924 924 922 922 922 922 921 0 0 0 0 0 0 0 0 0 0 833 833 833 831 831 830 829 828 827 826 825 824 823 822 821 820 819 819 818 818 818 816 816 815 814 813 812 811 810 810 809 809 808 808 808 807 807 806 806 805 804 803 802 801 800 800 799 798 797 797 796 795 794 793 793 792 791 790 790 790 789 788 787 787 786 785 785 784 783 783 782 782 782 782 782 782 781 781 781 780 779 779 778 777 777 776 776 776 776 775 774 774 773 773 772 772 772 772 773 0 0 0 799 0 0 0 0 856 864 874 881 890 899 908 912 916 918 921 921 921 0 0 0 0 0 0 0 0 0 0 0 0 0 0 0 0 0 0 0 0 0 0 0 0 916 916 916 916 916 916 916 914 913 912 910 908 905 0 0 0 0 0 0 0 0 0 0 0 0 0 0 0 0 0 0 0 0 0 0 0 0 0 0 0 0 0 0 0 0 0 0 0 0 0 0 0 0 0 841 841 843 844 844 845 845 845 846 846 846 846 847 847 847 848 848 849 849 850 850 850 852 852 850 850 850 850 850 849 849 849 849 849 848 848 848 848 847 847 847 847 846 846 847 847 847 847 847 848 848 848 849 849 849 849 849 849 849 849 849 849 849 849 848 848 848 848 848 849 849 849 849 849 849 850 850 850 850 850 850 849 849 849 849 849 849 849 849 849 849 0 0 0 0
0 0 0 0 0 0 0 0 0 0 0 0 0 0 0 0 0 0 0 0 0 0 0 0 0 0 0 0 0 0 0 0 0 0 0 0 0 0 0 0 0 0 0 0 0 0 0 0 0 0 0 0 0 0 0 0 0 0 0 0 0 0 0 0 0 0 0 0 0 0 0 0 0 0 0 0 0 0 0 0 0 0 0 0 921 920 920 921 921 922 922 924 924 925 925 926 926 926 928 928 928 928 928 928 928 928 928 928 926 926 925 925 924 924 922 922 922 922 924 924 925 926 928 928 928 926 926 925 924 922 922 921 921 922 922 922 924 924 924 924 924 924 922 922 921 920 920 918 918 918 918 918 918 918 918 920 920 920 921 921 921 921 921 921 921 921 921 921 921 922 922 922 921 921 921 921 920 920 0 0 0 0 0 0 0 0 0 836 835 835 834 834 833 831 830 829 828 827 826 825 824 823 822 821 821 820 820 820 819 819 818 816 815 814 814 813 812 811 810 810 810 809 809 809 808 807 807 806 805 804 803 802 801 801 800 799 799 798 797 796 796 795 794 793 793 792 792 791 791 790 789 789 788 787 786 786 785 785 784 784 784 784 784 783 783 782 782 781 781 780 779 778 778 777 777 776 776 776 776 775 775 774 774 773 774 774 0 0 0 0 0 0 0 853 859 866 875 882 890 897 906 910 914 917 918 918 918 0 0 0 0 0 0 0 0 0 0 0 0 0 0 0 0 0 0 0 0 0 0 0 913 914 914 914 914 914 914 914 913 912 910 908 906 904 901 897 0 0 0 0 0 0 0 0 0 0 0 0 0 0 0 0 0 0 0 0 0 0 0 0 0 0 0 0 0 0 0 0 0 0 0 0 0 840 841 841 841 841 841 843 843 844 844 845 845 845 845 845 846 846 846 847 847 848 848 849 849 849 849 849 849 848 848 848 848 848 847 847 847 847 847 846 846 846 846 845 845 845 845 845 845 846 846 846 846 847 847 847 847 847 847 848 848 848 848 847 847 847 847 847 847 847 847 847 847 847 848 848 848 848 848 849 849 849 849 848 848 848 848 848 848 848 848 848 848 847 0 0 0 0
0 0 0 0 0 0 0 0 0 0 0 0 0 0 0 0 0 0 0 0 0 0 0 0 0 0 0 0 0 0 0 0 0 0 0 0 0 0 0 0 0 0 0 0 0 0 0 0 0 0 0 0 0 0 0 0 0 0 0 0 0 0 0 0 0 0 0 0 0 0 0 0 0 0 0 0 0 0 0 0 0 0 0 918 918 917 920 920 920 920 920 921 922 922 924 924 925 925 925 926 926 926 926 928 928 928 928 926 926 926 925 925 924 922 922 922 922 922 924 925 925 926 928 926 926 926 926 925 924 922 922 921 920 921 921 922 922 924 924 924 922 922 922 921 920 920 918 917 917 917 917 917 917 917 918 918 918 920 920 920 920 920 920 920 920 920 920 920 920 920 920 920 921 921 921 921 920 918 0 0 0 0 0 0 0 0 0 838 837 837 836 835 835 834 833 831 830 829 828 827 826 825 824 823 823 822 822 822 821 821 820 819 818 816 815 815 814 813 812 812 812 811 811 810 810 809 808 807 807 806 805 804 804 803 802 801 801 800 799 798 798 797 796 795 795 794 794 794 793 793 792 791 790 790 789 788 787 787 786 786 786 786 785 785 785 784 784 783 782 782 781 780 779 779 778 778 778 777 777 776 776 776 776 776 776 776 0 0 0 0 0 0 0 854 860 867 874 882 889 897 904 909 914 916 918 917 917 0 0 0 0 0 0 0 0 0 0 0 0 0 0 0 0 0 0 0 0 0 0 912 912 913 913 913 913 913 913 913 912 910 908 905 903 900 897 892 887 0 0 0 0 0 0 0 0 0 0 0 0 0 0 0 0 0 0 0 0 0 0 0 0 0 0 0 0 0 0 0 0 0 839 840 840 839 840 840 840 840 841 841 841 843 843 843 844 844 844 844 844 845 845 845 846 846 846 847 847 847 847 847 847 847 847 846 846 846 846 846 846 845 845 845 845 844 844 844 844 844 844 844 844 844 845 845 845 845 845 846 846 846 846 846 846 846 846 846 846 846 846 846 846 846 846 846 846 846 846 847 847 847 847 847 847 847 847 847 847 847 847 846 846 846 846 846 846 846 0 0 0 0
0 0 0 0 0 0 0 0 0 0 0 0 0 0 0 0 0 0 0 0 0 0 0 0 0 0 0 0 0 0 0 0 0 0 0 0 0 0 0 0 0 0 0 0 0 0 0 0 0 0 0 0 0 0 0 0 0 0 0 0 0 0 0 0 0 0 0 0 0 0 0 0 0 0 0 0 0 0 0 0 0 916 917 916 916 916 916 917 917 917 918 918 920 921 921 922 922 924 924 925 925 925 925 926 926 926 928 928 926 926 925 925 924 922 921 921 921 922 922 924 925 926 926 928 928 926 925 925 924 922 921 920 920 921 921 921 922 922 924 924 922 922 921 921 920 918 917 917 916 916 916 916 916 917 917 917 917 918 918 918 918 918 918 918 918 918 918 918 918 918 918 918 920 920 920 920 918 917 917 0 0 0 0 0 0 0 0 841 839 838 838 837 836 835 834 834 833 831 830 829 828 827 826 825 825 824 824 823 823 823 822 821 820 819 818 818 816 815 814 814 813 813 813 812 812 811 810 809 808 807 807 806 806 805 804 803 803 802 801 800 800 799 798 798 797 796 796 796 795 795 794 794 793 792 791 791 790 789 789 788 788 788 787 787 786 786 785 785 784 783 783 782 781 780 780 780 779 779 778 778 778 777 777 777 778 0 0 0 798 0 0 0 850 856 861 868 874 882 889 896 904 909 913 914 916 917 916 913 0 0 0 0 0 0 0 0 0 0 0 0 0 0 0 0 0 0 0 0 912 912 912 912 912 912 912 912 912 912 910 908 906 904 901 897 895 889 882 875 0 0 0 0 0 0 0 0 0 0 0 0 0 0 0 0 0 0 0 0 0 0 0 0 0 0 0 0 838 838 838 839 838 839 839 839 839 840 840 840 840 840 840 841 841 841 841 843 843 843 843 843 844 844 844 844 845 845 845 845 845 845 845 845 845 845 845 844 844 844 844 844 844 844 843 843 843 841 841 841 841 843 843 843 843 844 844 844 844 844 844 844 844 845 845 845 845 845 845 845 844 844 844 844 844 845 845 845 845 845 846 846 846 846 846 846 846 846 845 845 845 845 845 845 845 845 845 845 0 0 0 0
0 0 0 0 0 0 0 0 0 0 0 0 0 0 0 0 0 0 0 0 0 0 0 0 0 0 0 0 0 0 0 0 0 0 0 0 0 0 0 0 0 0 0 0 0 0 0 0 0 0 0 0 0 0 0 0 0 0 0 0 0 0 0 0 0 0 0 0 0 0 0 0 0 0 0 0 0 0 0 913 914 916 916 914 914 914 914 914 914 916 916 917 918 918 920 920 921 922 922 922 924 925 925 926 926 926 928 928 926 926 925 924 922 922 921 921 920 920 921 922 924 925 926 926 926 926 926 925 924 922 921 920 920 921 921 921 922 922 924 924 922 922 921 920 920 918 917 917 916 916 916 914 914 916 916 916 917 917 917 917 917 917 917 917 917 917 917 917 917 917 917 918 918 918 920 918 918 917 916 0 0 0 886 0 0 0 849 844 840 840 839 838 838 837 836 835 834 834 833 831 830 829 828 828 827 826 825 825 825 824 824 823 822 821 820 819 819 818 816 816 815 815 814 814 814 813 812 811 810 809 808 808 807 807 806 805 805 804 803 802 801 801 800 799 799 798 798 798 797 797 797 796 795 795 794 793 792 792 791 791 790 790 789 789 788 788 787 786 786 785 784 784 783 782 782 781 781 781 780 780 780 779 779 779 781 0 0 0 803 0 0 0 0 857 862 869 875 882 890 896 903 908 912 914 916 916 913 912 0 0 0 0 0 0 0 0 0 0 0 0 0 0 0 0 0 0 910 909 910 910 910 910 910 910 910 910 910 910 909 908 905 903 899 895 891 885 878 870 0 0 0 0 0 0 0 0 0 835 837 0 839 0 0 0 0 841 841 840 839 837 837 836 835 836 837 837 837 838 838 838 838 838 838 838 839 839 839 839 839 839 839 839 840 840 840 840 840 841 841 841 841 841 843 843 843 843 843 844 844 844 844 843 843 843 843 843 843 843 841 841 841 841 841 841 840 840 840 840 840 840 841 841 841 841 841 843 843 843 843 843 843 843 843 843 843 843 843 843 843 843 843 843 843 843 843 844 844 844 844 845 845 845 845 845 845 844 844 844 844 844 844 844 844 844 844 844 0 0 0 0
0 0 0 0 0 0 0 0 0 0 0 0 0 0 0 0 0 0 0 0 0 0 0 0 0 0 0 0 0 0 0 0 0 0 0 0 0 0 0 0 0 0 0 0 0 0 0 0 0 0 0 0 0 0 0 0 0 0 0 0 0 0 0 0 0 0 0 0 0 0 0 0 0 0 0 0 0 910 912 913 913 914 913 913 913 913 913 913 913 913 914 914 916 917 917 918 918 920 920 922 924 924 924 925 926 926 928 928 926 926 925 924 922 922 920 920 920 920 920 921 922 924 926 926 926 926 926 0 924 922 921 920 920 920 920 921 922 922 924 924 922 921 920 920 918 917 917 916 916 916 914 914 914 914 914 914 916 916 916 916 917 916 916 916 916 916 916 916 916 916 917 917 918 918 918 918 917 917 914 0 0 903 887 876 0 0 850 845 841 841 840 839 839 838 838 837 836 835 835 834 833 831 830 830 829 828 827 827 826 826 825 825 824 823 822 821 820 820 819 819 818 818 816 816 815 815 814 813 812 811 810 809 809 808 808 807 807 806 805 804 804 803 802 801 801 800 800 800 800 799 799 798 798 797 796 796 795 794 793 793 792 791 791 791 790 790 789 788 788 787 786 785 785 784 784 784 783 783 782 782 782 782 782 781 783 785 791 0 807 826 0 849 854 0 864 870 876 884 890 896 903 906 910 914 914 914 913 910 908 905 903 0 0 0 0 0 0 0 0 0 0 0 0 0 0 908 908 909 909 909 909 909 909 909 909 909 909 909 908 905 903 900 896 892 886 880 873 866 859 852 846 840 836 834 834 834 834 835 836 837 839 840 840 841 841 840 840 839 838 837 836 836 835 836 836 836 837 837 837 837 837 837 837 837 837 838 838 838 838 837 838 838 838 839 839 839 839 839 840 840 840 840 840 840 840 841 841 841 841 841 841 841 841 840 840 840 840 840 840 840 840 840 839 839 839 839 839 839 839 839 839 840 840 840 840 840 841 841 841 841 841 841 841 841 841 841 841 841 841 841 841 841 841 841 841 841 841 843 843 843 843 844 844 843 843 843 843 843 843 843 841 841 841 843 843 843 0 0 0 0
0 0 0 0 0 0 0 0 0 0 0 0 0 0 0 0 0 0 0 0 0 0 0 0 0 0 0 0 0 0 0 0 0 0 0 0 0 0 0 0 0 0 0 0 0 0 0 0 0 0 0 0 0 0 0 0 0 0 0 0 0 0 0 0 0 0 0 0 0 0 0 0 0 0 904 908 908 909 910 910 912 912 912 912 910 910 910 910 910 912 912 913 913 914 914 916 917 918 918 921 922 922 924 925 925 928 928 928 926 928 925 925 922 921 920 920 918 918 918 920 0 924 925 926 926 926 926 925 924 922 921 920 920 920 920 0 0 922 922 0 922 921 920 918 918 917 916 916 914 914 914 913 913 913 914 914 914 914 916 916 916 916 916 914 914 914 914 914 914 916 916 917 917 917 917 917 917 916 913 912 0 897 887 879 0 0 853 847 844 843 841 841 840 839 839 838 838 837 836 836 835 834 833 833 831 830 829 829 828 827 827 826 825 825 824 823 822 821 821 820 820 819 819 819 818 816 816 815 814 813 812 811 811 810 809 809 808 808 807 806 806 805 804 804 803 802 802 802 802 801 801 801 800 799 799 798 797 797 796 795 794 793 793 792 792 791 791 790 790 789 788 788 787 787 786 786 785 785 785 784 784 784 785 784 787 791 796 803 811 828 844 849 855 861 866 872 878 884 891 896 903 906 910 912 914 913 912 909 906 904 901 899 896 896 0 0 0 0 0 0 0 0 903 903 904 905 906 908 908 906 908 908 908 908 908 908 908 906 906 904 900 897 892 889 884 876 869 0 855 849 844 839 836 834 834 834 834 834 835 836 837 838 839 839 839 839 838 837 837 836 835 835 835 835 835 836 836 836 836 836 836 836 836 836 836 836 837 837 837 837 837 837 837 837 838 838 838 838 838 838 838 839 839 839 839 839 839 839 839 839 839 839 839 839 839 839 839 839 839 838 838 838 838 838 838 838 837 837 837 838 838 838 839 839 839 839 839 839 839 839 839 840 840 840 840 840 840 840 840 839 839 839 840 840 840 840 840 840 841 841 841 841 841 841 841 841 840 840 840 840 840 840 840 840 840 841 0 0 0 0
0 0 0 0 0 0 0 0 0 0 0 0 0 0 0 0 0 0 0 0 0 0 0 0 0 0 0 0 0 0 0 0 0 0 0 0 0 0 0 0 0 0 0 0 0 0 0 0 0 0 0 0 0 0 0 0 0 0 0 0 0 0 0 0 0 0 0 0 0 0 0 0 0 903 904 905 905 906 908 909 909 909 909 909 909 909 909 909 909 909 910 910 912 912 913 914 916 917 917 920 921 922 922 925 926 926 928 928 928 928 925 924 922 922 920 918 918 918 918 0 0 0 924 926 926 925 925 925 924 922 921 920 920 920 920 921 921 922 922 0 0 920 918 918 917 916 916 914 913 913 912 912 912 913 913 913 914 914 914 914 914 914 914 914 914 913 913 913 914 914 914 916 916 916 917 917 916 914 913 910 908 896 889 879 0 862 855 848 845 845 844 843 841 841 840 840 839 839 838 837 837 836 835 834 834 833 831 830 830 829 828 828 827 826 825 824 824 823 823 822 822 821 820 820 820 819 818 818 816 815 814 813 813 812 811 811 810 809 809 808 807 807 806 806 805 805 804 804 803 803 803 803 802 802 801 800 799 798 797 797 796 795 795 794 793 793 792 792 792 791 791 790 789 789 788 788 787 787 787 786 786 786 787 789 791 795 799 807 814 831 844 852 856 863 868 873 879 885 891 896 901 905 909 910 913 912 909 906 904 901 899 896 895 895 895 895 895 895 895 897 899 899 900 901 904 904 905 906 906 906 906 906 906 906 906 906 906 906 904 901 899 895 890 885 880 873 0 857 852 846 841 838 835 834 833 833 833 834 835 836 836 837 838 838 838 838 837 837 836 835 834 834 834 834 834 835 835 835 836 836 836 836 836 836 835 835 835 835 836 836 836 836 836 836 836 836 836 837 837 837 837 837 837 837 837 837 837 837 838 838 838 838 838 838 837 837 837 837 837 837 837 837 837 837 837 837 836 836 836 836 837 837 837 837 838 838 838 838 838 838 838 838 838 838 838 838 838 838 838 838 838 838 838 838 838 839 839 839 840 840 840 840 840 840 840 839 839 839 839 839 839 839 839 839 839 839 0 0 0 0
0 0 0 0 0 0 0 0 0 0 0 0 0 0 0 0 0 0 0 0 0 0 0 0 0 0 0 0 0 0 0 0 0 0 0 0 0 0 0 0 0 0 0 0 0 0 0 0 0 0 0 0 0 0 0 0 0 0 0 0 0 0 0 0 0 0 0 0 0 0 0 0 899 901 901 904 904 905 906 908 908 908 908 908 906 906 906 906 906 906 908 909 909 910 912 913 914 916 916 918 920 0 0 924 925 0 928 928 0 929 926 0 924 921 920 918 917 917 0 0 0 922 924 925 926 925 925 925 924 922 921 920 920 920 920 920 921 921 921 921 920 918 917 917 916 916 914 913 912 912 910 912 912 912 912 913 913 913 914 914 914 913 913 913 913 913 913 913 913 913 913 914 914 916 916 916 916 914 912 909 906 896 889 880 872 864 857 852 847 846 845 844 844 843 843 841 841 840 840 839 838 838 837 836 835 835 834 833 831 830 830 829 828 828 827 826 826 825 825 824 824 823 822 822 821 821 820 819 819 818 816 815 814 814 813 812 812 811 811 810 809 808 808 807 807 806 806 806 805 805 805 804 804 803 803 802 801 800 800 799 798 797 797 796 795 795 794 794 793 793 793 792 791 791 790 790 789 789 789 788 788 788 790 791 794 798 803 810 819 833 846 854 859 864 869 875 881 886 891 896 901 905 908 910 910 909 908 905 903 900 897 896 895 895 894 895 894 895 895 896 897 899 900 901 903 904 905 905 905 905 905 905 905 905 905 905 905 904 903 899 896 892 886 881 875 0 862 855 849 845 840 837 835 834 833 833 833 833 834 835 836 836 836 837 836 836 836 835 835 834 834 833 833 834 834 834 834 835 835 835 835 835 835 835 835 834 834 834 834 834 835 835 835 835 835 835 836 836 836 836 836 836 836 836 836 836 836 836 836 836 836 836 836 836 836 836 836 836 836 836 836 836 836 836 836 835 835 835 835 835 835 836 836 836 836 837 837 837 837 837 837 837 837 837 837 837 837 837 837 837 837 837 837 837 837 837 838 838 838 838 839 839 839 839 838 838 838 838 838 838 838 838 838 838 838 838 0 0 0 0
0 0 0 0 0 0 0 0 0 0 0 0 0 0 0 0 0 0 0 0 0 0 0 0 0 0 0 0 0 0 0 0 0 0 0 0 0 0 0 0 0 0 0 0 0 0 0 0 0 0 0 0 0 0 0 0 0 0 0 0 0 0 0 0 0 0 0 0 0 0 0 0 897 899 900 901 903 904 905 905 905 905 905 905 905 904 904 904 905 905 906 906 906 908 909 910 912 914 914 917 918 920 922 0 925 926 929 929 929 928 926 925 922 922 918 918 917 916 916 917 918 921 922 924 925 924 924 924 922 921 921 918 918 920 918 920 920 920 920 920 918 917 916 916 914 913 912 912 910 910 910 910 910 910 910 912 912 913 913 913 913 913 913 913 912 912 912 912 912 912 913 914 914 914 914 914 914 913 912 909 904 896 889 881 873 866 859 853 849 848 846 846 845 845 844 844 843 843 841 841 840 839 838 838 837 836 835 835 834 833 831 831 830 829 829 828 828 827 827 826 825 825 825 824 823 822 822 821 820 819 819 818 816 815 815 814 814 813 812 812 811 811 810 809 809 808 808 807 807 807 806 806 806 805 805 804 803 802 801 801 800 799 798 798 797 797 796 796 795 795 794 794 793 793 792 792 791 791 790 790 790 791 792 795 797 802 807 815 825 836 846 855 861 866 872 876 882 887 892 897 903 905 908 909 909 908 906 904 901 899 896 895 894 894 894 894 894 894 895 896 897 897 900 901 901 903 904 904 904 904 904 904 904 904 904 904 903 903 901 897 894 889 884 879 872 864 857 852 847 843 839 837 835 834 833 831 833 833 833 834 834 835 835 836 835 835 835 834 834 833 833 833 833 833 833 833 834 834 834 834 834 834 834 834 834 833 833 833 833 833 833 834 834 834 834 835 835 835 835 835 835 835 835 834 834 834 834 835 835 835 835 835 835 835 835 835 835 835 835 835 835 835 835 834 834 834 834 834 834 834 835 835 835 835 835 835 836 836 836 836 836 836 836 836 836 836 836 836 836 836 836 835 836 836 836 836 836 837 837 837 837 838 838 838 837 837 837 837 837 837 836 836 836 836 837 837 0 0 0 0
0 0 0 0 0 0 0 0 0 0 0 0 0 0 0 0 0 0 0 0 0 0 0 0 0 0 0 0 0 0 0 0 0 0 0 0 0 0 0 0 0 0 0 0 0 0 0 0 0 0 0 0 0 0 0 0 0 0 0 0 0 0 0 0 0 0 0 0 0 0 0 896 896 897 899 900 901 903 903 904 904 904 904 903 903 903 903 903 904 904 904 904 905 906 906 908 909 912 913 914 917 918 920 922 924 926 928 928 928 928 926 925 922 921 920 917 916 916 916 916 917 920 921 922 924 924 924 924 922 921 920 920 918 918 918 918 918 918 918 918 917 916 914 913 912 910 910 909 909 908 908 908 908 909 909 910 912 912 912 913 913 913 912 912 912 910 910 910 910 912 912 912 913 913 914 914 913 912 909 908 903 895 887 881 873 866 860 855 850 849 848 847 847 846 846 845 845 844 844 843 843 841 840 839 838 838 837 836 835 834 834 833 833 831 830 830 829 829 828 828 827 827 826 826 825 825 824 823 822 821 820 820 819 818 818 816 815 815 814 814 813 813 812 811 811 810 809 809 808 808 808 807 807 807 806 806 805 804 803 802 802 801 800 799 799 798 798 797 797 796 796 796 795 795 794 793 793 793 792 792 792 792 794 796 800 804 809 819 827 837 849 856 862 867 872 878 882 889 892 897 903 904 906 908 908 908 905 903 900 897 896 895 894 894 894 894 894 894 895 895 896 897 899 900 901 901 903 903 903 903 903 903 903 903 903 903 903 900 899 895 891 886 880 874 867 861 855 849 845 841 837 836 835 833 831 831 831 831 831 833 833 834 834 834 834 834 834 833 833 833 831 831 831 831 831 833 833 833 833 833 833 833 833 833 833 831 831 831 831 831 831 833 833 833 833 833 834 834 834 834 834 834 833 833 833 833 833 833 834 834 834 834 834 834 834 834 834 834 834 834 834 834 833 833 833 833 833 833 833 833 834 834 834 834 834 834 835 835 835 835 835 835 835 835 835 835 835 835 834 834 834 834 834 834 835 835 835 836 836 836 836 836 837 836 836 836 836 836 835 835 835 835 835 835 835 835 0 0 0 0
0 0 0 0 0 0 0 0 0 0 0 0 0 0 0 0 0 0 0 0 0 0 0 0 0 0 0 0 0 0 0 0 0 0 0 0 0 0 0 0 0 0 0 0 0 0 0 0 0 0 0 0 0 0 0 0 0 0 0 0 0 0 0 0 0 0 0 0 0 0 895 894 895 896 897 899 900 900 901 901 901 901 901 901 901 901 901 901 901 901 901 903 904 904 905 906 908 909 910 913 914 917 918 920 922 924 0 0 0 926 925 925 922 921 918 917 914 914 914 914 916 918 920 921 922 924 922 922 921 920 918 918 917 918 918 918 917 917 916 916 914 913 910 909 909 908 908 908 906 906 906 906 908 909 909 910 910 912 912 913 913 912 912 910 910 909 909 909 910 910 910 912 912 912 913 912 912 910 909 906 901 895 887 881 874 867 861 856 853 850 849 849 848 848 848 847 847 846 846 845 845 844 843 841 840 839 838 837 837 836 835 834 834 833 833 831 831 830 830 829 829 828 828 827 827 826 826 825 824 823 822 821 821 820 819 818 818 816 816 815 815 814 814 813 812 812 811 810 810 809 809 808 808 808 807 807 806 806 805 804 803 802 802 801 800 800 800 799 799 798 798 798 797 796 796 795 795 794 794 794 794 795 797 800 803 807 812 821 829 840 852 859 863 868 873 879 885 890 894 897 901 904 905 906 906 905 904 903 900 897 896 895 894 894 894 894 894 894 894 895 896 897 899 899 900 901 901 901 901 901 901 901 901 901 901 901 900 899 896 892 887 882 876 870 863 857 852 847 843 839 837 836 834 833 831 831 831 830 830 831 831 831 833 833 833 833 833 833 831 831 831 831 831 831 831 831 831 831 831 831 831 831 831 831 831 831 830 830 830 830 830 831 831 831 831 831 831 833 833 833 833 833 833 831 831 831 831 831 833 833 833 833 833 833 833 833 833 833 833 833 833 831 831 831 831 831 831 831 831 831 831 833 833 833 833 833 833 833 833 833 833 834 834 834 834 834 834 834 834 833 833 833 833 833 834 834 834 835 835 835 835 835 835 835 835 835 835 834 834 834 834 834 834 834 834 834 0 0 0 0
0 0 0 0 0 0 0 0 0 0 0 0 0 0 0 0 0 0 0 0 0 0 0 0 0 0 0 0 0 0 0 0 0 0 0 0 0 0 0 0 0 0 0 0 0 0 0 0 0 0 0 0 0 0 0 0 0 0 0 0 0 0 0 0 0 0 0 0 0 0 892 894 894 895 896 896 897 899 899 900 900 900 900 899 899 900 899 899 899 900 900 900 901 903 903 904 905 906 908 910 913 914 916 918 921 0 0 0 0 0 925 924 921 918 916 913 912 910 909 910 912 914 917 917 920 921 921 921 920 918 917 916 917 916 916 916 916 914 914 913 912 909 908 906 905 905 904 904 905 905 905 906 908 909 909 910 912 912 912 912 912 912 910 909 909 909 908 908 908 909 909 909 910 910 910 910 910 908 906 904 900 894 886 880 874 868 862 859 855 853 852 850 850 850 849 849 849 848 848 847 847 846 845 844 843 841 840 839 838 837 836 836 835 835 834 834 833 833 831 831 831 830 830 829 829 828 827 827 826 825 824 823 822 822 821 820 820 819 819 818 818 816 816 815 814 814 813 812 811 811 810 810 809 809 808 808 808 807 807 806 805 804 803 803 802 802 801 801 801 800 800 800 799 798 798 797 796 796 796 796 796 797 799 802 805 809 814 823 831 843 854 860 866 870 875 880 886 890 894 897 901 903 905 905 904 904 903 900 899 896 895 895 894 894 894 894 892 894 894 895 896 896 897 899 899 900 900 901 900 901 900 900 900 900 900 899 897 896 892 889 884 878 873 866 860 855 849 846 841 839 837 835 834 831 831 830 830 830 830 830 830 830 831 831 831 831 831 830 830 830 830 830 830 830 830 830 830 830 830 830 830 830 830 830 830 830 830 829 829 829 830 830 830 830 830 830 831 831 831 831 831 831 830 830 830 830 830 830 831 831 831 831 831 831 831 831 831 831 831 831 831 830 830 830 830 830 830 830 830 830 830 831 831 831 831 831 831 831 831 831 831 831 833 833 833 833 833 833 831 831 831 831 833 833 833 833 833 834 834 834 834 834 834 834 834 834 833 833 833 833 833 833 833 833 833 833 0 0 0 0
0 0 0 0 0 0 0 0 0 0 0 0 0 0 0 0 0 0 0 0 0 0 0 0 0 0 0 0 0 0 0 0 0 0 0 0 0 0 0 0 0 0 0 0 0 0 0 0 0 0 0 0 0 0 0 0 0 0 0 0 0 0 0 0 0 0 0 0 0 894 894 891 892 894 894 895 896 897 897 897 897 897 897 897 897 897 897 897 899 899 899 899 899 900 900 901 903 904 905 906 909 910 912 913 914 0 0 0 0 0 0 918 916 913 910 908 906 905 905 906 908 910 913 914 916 917 918 918 917 914 913 913 913 912 912 912 910 910 909 908 906 904 903 903 901 901 900 901 901 903 903 905 906 908 909 910 910 912 912 912 912 910 909 909 908 906 906 906 906 908 908 908 908 909 909 909 908 906 904 903 899 894 887 880 874 869 863 860 856 855 853 853 853 853 852 852 852 850 850 849 848 848 847 846 845 844 843 841 840 839 838 837 836 836 835 835 835 834 834 834 833 833 831 831 830 830 829 828 828 827 826 825 824 824 823 822 822 821 820 820 820 819 819 818 816 816 815 814 813 812 812 811 810 810 810 809 809 808 808 807 807 806 805 805 804 803 803 803 803 802 802 802 801 800 799 799 798 798 798 797 798 798 801 803 807 811 816 824 833 844 855 862 867 872 878 882 887 891 894 897 900 903 904 903 903 901 901 899 897 896 895 895 894 894 892 892 892 892 894 895 895 896 896 897 899 899 899 899 899 900 899 899 899 897 897 896 895 892 890 885 880 874 869 863 857 852 848 845 841 839 837 835 833 831 830 830 829 829 829 829 829 829 830 830 830 829 829 829 829 829 829 829 829 829 829 829 829 829 829 829 829 829 829 829 829 829 829 829 829 829 829 829 829 829 829 830 830 830 830 830 830 830 829 829 829 829 829 829 830 830 830 830 830 830 830 830 830 830 830 830 830 830 830 829 829 829 829 829 829 829 830 830 830 830 830 830 830 830 830 830 830 831 831 831 831 831 831 831 830 830 830 830 831 831 831 831 831 833 833 833 833 833 833 833 833 833 831 831 831 831 831 831 831 831 831 831 0 0 0 0
0 0 0 0 0 0 0 0 0 0 0 0 0 0 0 0 0 0 0 0 0 0 0 0 0 0 0 0 0 0 0 0 0 0 0 0 0 0 0 0 0 0 0 0 0 0 0 0 0 0 0 0 0 0 0 0 0 0 0 0 0 0 0 0 0 0 0 0 896 895 894 891 892 892 894 895 895 895 895 896 896 896 896 895 896 896 896 896 896 896 896 896 896 897 897 899 900 901 903 903 905 906 906 908 0 0 0 0 0 0 0 913 910 908 905 904 901 0 0 0 903 905 908 910 912 914 914 914 913 912 912 910 909 910 909 908 908 908 906 905 903 900 899 899 899 899 897 899 900 901 903 905 905 906 908 910 910 912 912 912 910 909 908 906 905 905 904 904 904 905 905 905 905 906 906 906 905 904 903 900 897 892 886 880 874 869 864 862 859 856 855 855 855 854 854 854 854 853 853 852 850 849 849 848 847 845 844 843 841 840 839 838 838 837 837 836 836 836 836 835 835 835 834 834 833 833 831 830 830 829 828 827 826 826 825 824 823 823 822 822 821 821 821 820 819 819 818 816 815 814 813 812 812 811 811 810 810 810 809 809 808 808 807 807 806 806 805 805 805 805 804 804 803 802 801 801 800 800 799 799 799 800 802 805 808 813 819 825 835 846 856 862 868 873 879 882 887 891 894 896 899 901 903 901 901 900 899 897 896 895 894 894 894 894 892 894 892 892 894 894 895 895 896 896 897 897 899 897 899 897 897 897 896 896 895 894 891 890 885 880 875 870 864 859 854 850 847 844 840 838 836 834 833 831 830 829 829 828 828 828 829 829 829 829 829 829 829 828 828 828 828 828 828 828 828 828 828 828 829 829 828 828 828 828 828 828 828 828 828 828 828 828 828 829 829 829 829 829 829 829 829 829 829 829 829 829 829 829 829 829 829 829 829 829 829 829 829 829 829 829 829 829 829 829 829 829 829 829 829 829 829 829 829 829 829 829 829 829 829 830 830 830 830 830 830 830 830 830 830 830 830 830 830 830 830 830 830 831 831 831 831 831 831 831 831 831 831 831 830 830 830 830 830 830 830 830 0 0 0 0
0 0 0 0 0 0 0 0 0 0 0 0 0 0 0 0 0 0 0 0 0 0 0 0 0 0 0 0 0 0 0 0 0 0 0 0 0 0 0 0 0 0 0 0 0 0 0 0 0 0 0 0 0 0 0 0 0 0 0 0 0 0 0 0 0 0 0 897 896 892 892 891 891 891 892 894 894 895 895 895 895 895 894 894 894 894 895 895 894 894 894 894 894 895 895 895 896 897 899 899 900 900 0 0 0 0 0 0 0 0 0 0 904 0 0 0 0 895 0 0 897 0 0 905 906 909 910 909 909 909 906 906 906 906 905 0 0 0 0 0 899 896 895 894 895 894 895 895 897 899 901 904 905 908 908 909 910 912 912 912 910 909 906 905 904 903 901 901 901 903 903 903 903 904 904 904 903 903 900 897 895 891 886 880 875 870 866 863 860 859 857 856 856 856 856 856 855 855 855 854 853 852 850 850 849 848 846 845 844 843 841 840 839 839 838 838 838 837 837 837 837 837 836 836 835 835 834 833 831 830 830 829 828 827 826 826 825 825 824 824 823 823 822 822 821 820 820 819 818 816 815 814 813 813 812 812 812 811 811 810 810 809 809 809 808 808 807 807 807 807 806 806 805 804 803 802 801 801 801 801 801 802 804 807 810 814 821 827 836 846 856 863 869 874 879 884 887 891 894 896 899 900 901 900 900 899 897 896 896 895 894 894 894 892 892 892 892 892 892 894 895 895 896 896 896 896 897 896 897 896 896 895 895 894 892 890 889 885 881 878 873 867 862 857 852 848 846 843 840 838 836 834 833 830 830 829 828 828 828 828 828 827 827 827 828 828 828 828 828 828 828 827 827 828 828 828 828 828 828 828 828 828 828 828 828 828 828 828 828 828 828 828 828 828 828 828 828 828 828 828 828 828 828 828 828 828 828 828 828 828 828 828 828 828 828 828 828 828 828 828 828 828 828 828 828 828 828 828 828 828 828 828 828 828 829 829 829 829 829 829 829 829 829 829 829 829 829 829 829 829 829 829 829 829 829 829 829 830 830 830 830 830 830 830 830 830 830 830 830 830 829 829 829 829 829 830 0 0 0 0
0 0 0 0 0 0 0 0 0 0 0 0 0 0 0 0 0 0 0 0 0 0 0 0 0 0 0 0 0 0 0 0 0 0 0 0 0 0 0 0 0 0 0 0 0 0 0 0 0 0 0 0 0 0 0 0 0 0 0 0 0 0 0 0 0 0 0 897 895 894 892 891 891 891 892 892 894 894 894 894 894 894 894 892 892 894 892 892 892 892 891 891 891 891 891 892 894 894 895 895 0 0 0 0 0 894 0 0 0 0 0 0 0 0 894 892 891 890 890 890 891 894 0 899 901 904 904 905 905 0 904 903 903 903 901 0 0 0 897 0 0 891 890 889 890 890 892 894 895 896 900 903 905 908 909 909 910 0 0 0 0 0 0 0 0 900 900 899 899 900 900 900 900 901 901 901 901 900 897 896 892 890 885 880 875 870 867 864 861 860 859 859 859 859 859 859 857 857 856 856 855 854 853 853 852 850 848 847 846 845 844 843 841 840 840 839 839 839 839 839 839 839 838 838 837 836 836 835 834 833 831 830 830 829 828 827 827 826 826 826 826 825 825 824 823 823 822 821 819 818 816 815 815 814 813 813 813 813 812 812 811 811 811 810 810 810 809 809 809 808 808 807 807 806 805 804 803 803 803 803 803 804 806 809 812 815 822 827 836 846 856 863 869 874 880 884 887 891 894 896 897 897 899 899 897 897 896 895 895 894 892 892 892 892 892 892 892 892 892 894 894 895 895 896 896 896 896 896 896 895 895 894 892 891 889 887 885 881 878 874 869 864 860 855 850 848 845 843 840 838 836 834 831 830 829 828 827 827 827 827 827 827 827 827 827 827 827 827 827 827 827 827 827 827 827 827 827 827 827 827 827 827 827 827 827 827 827 827 827 827 827 827 827 828 828 828 828 828 828 828 828 828 827 827 827 827 827 827 828 828 828 828 828 828 828 828 828 828 828 828 828 828 828 828 828 828 828 828 828 828 828 828 828 828 828 828 828 828 828 828 828 828 828 828 828 828 828 828 828 828 828 828 828 828 828 828 829 829 829 829 829 830 830 830 830 830 829 829 829 829 829 829 829 829 829 829 0 0 0 0
0 0 0 0 0 0 0 0 0 0 0 0 0 0 0 0 0 0 0 0 0 0 0 0 0 0 0 0 0 0 0 0 0 0 0 0 0 0 0 0 0 0 0 0 0 0 0 0 0 0 0 0 0 0 0 0 0 0 0 0 0 0 0 0 0 0 0 0 895 892 891 890 890 891 891 892 892 894 894 894 894 892 892 892 892 891 891 891 890 890 890 890 889 889 889 889 889 890 890 889 889 0 887 886 885 885 885 0 0 0 887 890 0 0 887 886 886 884 884 885 886 889 891 0 0 899 0 901 900 900 899 897 897 897 896 895 894 892 890 889 887 0 885 885 885 887 889 890 892 895 897 903 905 906 0 0 0 0 0 0 0 0 0 0 0 0 0 0 0 897 897 897 897 899 899 899 899 897 896 894 891 887 882 878 874 870 867 864 862 861 860 860 860 860 860 860 860 860 859 859 857 856 855 854 854 853 850 849 848 846 845 845 844 843 841 841 841 841 841 841 840 840 840 839 839 838 837 837 836 835 834 833 831 830 830 829 828 828 828 827 827 827 827 826 826 825 824 823 822 820 819 818 818 816 815 815 814 814 814 813 813 813 812 812 812 811 811 811 811 810 810 809 809 808 807 806 805 805 805 805 805 805 808 810 813 818 823 829 838 847 856 864 870 874 880 884 889 891 894 895 896 897 897 896 896 896 895 895 894 892 892 892 892 891 891 891 891 891 892 894 894 895 894 895 895 895 895 895 894 894 892 891 890 889 886 884 881 879 875 870 867 862 857 854 850 847 845 843 840 838 835 834 831 830 829 827 827 827 826 826 826 826 826 826 826 826 826 826 826 827 827 827 827 827 827 827 827 827 827 827 827 827 827 827 827 827 827 827 827 827 827 827 827 827 827 827 827 827 827 827 827 827 827 827 827 827 827 827 827 827 827 827 828 828 828 828 828 828 828 828 827 827 827 827 827 827 827 827 827 827 827 827 828 828 828 828 828 828 828 828 828 828 828 828 828 828 828 828 828 828 828 828 828 828 828 828 828 828 828 829 829 829 829 829 829 829 829 829 829 829 828 828 828 828 828 828 0 0 0 0
0 0 0 0 0 0 0 0 0 0 0 0 0 0 0 0 0 0 0 0 0 0 0 0 0 0 0 0 0 0 0 0 0 0 0 0 0 0 0 0 0 0 0 0 0 0 0 0 0 0 0 0 0 0 0 0 0 0 0 0 0 0 0 0 0 0 0 0 0 0 0 0 0 0 0 0 0 0 0 0 892 892 891 891 891 890 889 889 889 889 887 887 886 886 886 885 885 886 886 885 884 882 881 879 879 876 876 0 0 878 879 0 0 881 880 880 880 879 879 879 880 882 885 0 891 894 0 896 896 896 895 895 894 892 891 0 0 0 885 882 0 0 881 881 882 884 885 887 890 892 896 900 0 0 0 0 0 0 0 0 0 0 0 0 0 0 0 0 0 0 0 896 895 896 897 896 896 896 894 892 889 886 882 878 874 870 867 864 862 862 861 861 861 862 862 862 862 861 861 860 860 859 857 856 856 855 853 852 850 848 847 846 846 845 844 844 843 843 843 843 843 843 841 841 840 840 839 838 837 837 836 835 834 833 831 831 830 830 829 829 829 829 829 828 828 827 826 825 824 823 821 820 819 819 818 818 816 816 815 815 815 815 814 814 813 813 813 813 812 812 812 811 811 810 809 808 808 807 807 807 807 807 809 811 814 820 824 830 839 848 857 864 872 876 880 885 887 891 892 894 895 895 896 895 895 894 894 894 894 892 892 891 891 891 891 891 891 891 892 892 894 894 894 894 895 894 894 894 892 892 891 889 887 886 884 881 879 875 872 868 863 860 856 853 850 847 845 843 840 838 835 834 831 829 828 827 827 826 826 825 825 825 825 826 826 826 826 826 826 826 826 826 826 826 827 827 827 827 827 827 827 827 827 827 827 827 827 827 827 827 827 827 827 827 827 827 827 827 827 827 827 827 827 826 826 826 827 827 827 827 827 827 827 827 827 827 827 827 827 827 827 827 827 827 827 827 827 827 827 827 827 827 827 827 827 827 827 827 827 827 827 827 828 827 827 827 827 827 827 827 827 827 827 827 827 827 828 828 828 828 828 828 829 829 829 828 828 828 828 828 828 828 828 828 828 828 0 0 0 0
0 0 0 0 0 0 0 0 0 0 0 0 0 0 0 0 0 0 0 0 0 0 0 0 0 0 0 0 0 0 0 0 0 0 0 0 0 0 0 0 0 0 0 0 0 0 0 0 0 0 0 0 0 0 0 0 0 0 0 0 0 0 0 0 0 0 0 0 0 0 0 0 0 0 0 0 0 0 0 0 0 0 0 891 890 889 889 887 886 886 886 885 884 884 882 882 882 882 882 880 880 878 876 874 873 870 869 0 0 870 870 873 875 875 875 876 876 875 875 876 876 879 880 882 885 887 0 892 892 892 892 0 0 0 0 0 0 0 0 0 878 878 878 878 879 881 882 885 887 891 0 0 0 0 0 0 0 0 0 0 0 0 0 0 0 0 0 0 0 0 0 0 895 895 895 895 895 894 892 890 887 884 880 876 873 869 867 864 863 862 862 862 862 863 863 863 863 863 862 862 861 861 860 859 857 857 855 854 853 852 849 848 847 847 846 845 845 845 845 845 845 844 844 844 843 843 841 840 839 838 837 837 836 835 834 833 833 831 831 831 831 831 830 830 830 829 828 827 826 824 823 822 821 820 820 819 819 819 818 818 818 816 816 816 815 815 815 815 814 814 814 813 813 812 811 810 809 809 809 809 808 809 811 812 815 820 825 831 840 848 857 866 872 876 880 885 887 890 891 892 894 894 894 894 894 892 892 892 891 891 891 891 891 891 891 891 891 891 892 892 892 894 894 894 894 892 894 892 891 891 890 887 885 882 881 879 875 873 869 866 863 860 856 854 850 848 846 844 840 838 835 833 831 829 827 827 826 825 825 825 825 825 825 825 825 825 825 825 825 825 826 826 826 826 826 826 826 826 826 826 826 826 826 826 826 826 826 826 826 826 826 826 826 827 827 827 827 827 826 826 826 826 826 826 826 826 826 826 826 826 827 827 827 827 827 827 827 827 827 827 827 827 827 827 827 827 827 827 827 827 827 827 827 827 827 827 827 827 827 827 827 827 827 827 827 827 827 827 827 827 827 827 827 827 827 827 827 827 828 828 828 828 828 828 828 828 828 828 828 828 828 827 827 827 828 828 0 0 0 0
0 0 0 0 0 0 0 0 0 0 0 0 0 0 0 0 0 0 0 0 0 0 0 0 0 0 0 0 0 0 0 0 0 0 0 0 0 0 0 0 0 0 0 0 0 0 0 0 0 0 0 0 0 0 0 0 0 0 0 0 0 0 0 0 0 0 0 0 0 0 0 0 0 0 0 0 0 0 0 0 0 0 0 0 0 887 886 886 885 885 884 882 881 881 881 880 880 880 879 879 876 875 873 872 870 869 868 0 0 869 869 872 873 874 874 874 875 873 874 874 874 876 878 880 882 884 0 887 890 0 0 0 0 0 0 0 0 0 0 0 876 876 875 875 876 879 880 882 885 0 0 0 0 0 0 0 0 0 0 0 0 0 0 0 0 0 0 0 0 0 0 0 0 892 892 892 892 892 891 889 886 884 879 875 872 869 867 864 864 863 862 863 863 864 864 864 864 863 863 863 862 862 861 861 860 859 857 856 855 854 852 850 849 849 848 847 847 847 847 846 846 846 846 846 845 845 844 843 841 840 839 838 838 837 836 835 834 834 834 833 833 833 833 833 833 831 830 829 828 826 825 824 823 822 821 821 821 820 820 820 820 819 819 819 818 818 818 818 816 816 816 815 815 814 813 812 811 811 811 810 810 811 812 814 818 821 826 833 840 849 857 866 873 876 881 885 887 889 890 891 892 892 892 892 891 891 891 891 890 890 890 890 890 890 890 891 891 891 891 892 892 892 894 892 892 892 892 891 891 890 887 885 884 881 879 876 874 870 868 866 862 860 857 854 852 849 847 844 840 838 835 833 830 828 827 826 825 825 825 825 825 825 825 825 825 825 825 825 825 825 825 825 825 825 825 825 826 826 826 826 826 826 826 826 826 826 826 826 826 826 826 826 826 826 826 826 826 826 826 826 826 826 825 825 825 825 825 826 826 826 826 826 827 827 827 827 827 827 827 826 826 826 826 826 826 826 826 826 827 827 827 827 827 827 827 827 827 827 827 827 827 827 827 827 827 827 827 827 827 827 827 826 826 826 827 827 827 827 827 827 827 827 828 828 828 828 827 827 827 827 827 827 827 827 827 827 0 0 0 0
0 0 0 0 0 0 0 0 0 0 0 0 0 0 0 0 0 0 0 0 0 0 0 0 0 0 0 0 0 0 0 0 0 0 0 0 0 0 0 0 0 0 0 0 0 0 0 0 0 0 0 0 0 0 0 0 0 0 0 0 0 0 0 0 0 0 0 0 0 0 0 0 0 0 0 0 0 0 0 0 0 0 0 0 0 0 885 884 884 882 881 880 880 879 879 879 878 876 876 875 874 874 873 869 870 868 867 868 868 868 869 870 872 873 873 873 873 873 873 872 873 874 874 876 879 881 0 0 0 0 0 0 0 0 0 0 0 0 0 0 876 875 875 875 876 876 878 0 0 0 0 0 0 0 0 0 0 0 0 0 0 0 0 0 0 0 0 0 0 0 0 0 0 0 891 891 890 890 889 886 884 882 879 875 872 869 867 866 863 863 863 863 864 864 864 864 864 864 864 863 863 863 862 862 861 861 860 859 857 856 855 853 852 852 850 850 849 849 848 848 848 848 848 848 847 847 846 845 844 843 841 840 839 839 838 837 836 836 836 835 835 835 835 835 835 834 833 831 830 828 827 826 825 824 823 823 822 822 822 821 821 821 821 821 820 820 820 820 819 819 818 818 816 816 815 814 813 813 813 812 812 813 814 816 819 823 828 834 841 849 859 866 872 876 881 884 886 889 890 890 891 891 891 891 890 890 890 890 890 889 889 889 889 890 890 890 891 891 891 892 892 892 892 892 892 891 891 890 889 887 885 882 881 879 876 874 872 869 867 864 862 860 857 855 853 850 848 845 841 838 836 833 830 828 826 825 825 824 824 824 824 824 825 825 825 825 825 825 825 825 825 825 825 825 825 825 825 825 825 825 825 825 825 825 825 825 825 825 825 825 825 825 825 825 825 825 825 825 825 825 825 825 825 825 825 825 825 825 825 825 826 826 826 826 826 826 826 826 826 826 826 826 826 826 826 826 826 826 826 826 826 826 826 826 826 826 826 826 826 826 826 826 826 826 826 826 826 826 826 826 826 826 826 826 826 826 826 827 827 827 827 827 827 827 827 827 827 827 827 827 827 827 827 827 827 827 0 0 0 0
0 0 0 0 0 0 0 0 0 0 0 0 0 0 0 0 0 0 0 0 0 0 0 0 0 0 0 0 0 0 0 0 0 0 0 0 0 0 0 0 0 0 0 0 0 0 0 0 0 0 0 0 0 0 0 0 0 0 0 0 0 0 0 0 0 0 0 0 0 0 0 0 0 0 0 0 0 0 0 0 0 0 0 0 0 0 0 882 881 880 879 879 878 876 876 876 875 875 875 874 873 872 870 869 868 867 867 867 868 868 869 870 872 872 873 872 873 872 872 872 872 873 873 875 876 879 0 0 0 0 0 0 0 0 0 0 0 0 0 0 876 875 875 875 875 0 0 0 0 0 0 0 0 0 0 0 0 0 0 0 0 0 0 0 0 0 0 0 0 0 0 0 0 0 889 889 887 887 886 885 882 880 876 874 870 868 867 864 863 862 862 863 863 863 864 864 864 864 864 864 864 863 863 863 862 862 861 860 859 857 857 856 855 854 853 853 852 852 852 850 850 850 850 850 849 849 848 847 846 845 844 843 841 841 840 839 838 838 838 837 837 837 837 837 837 836 835 834 833 831 829 828 827 826 825 824 824 824 823 823 823 823 822 822 822 822 822 821 821 821 820 820 819 819 818 816 815 815 815 814 814 814 815 818 821 824 829 835 843 850 859 866 872 876 879 882 885 886 887 889 889 890 889 890 889 889 889 889 889 889 889 889 889 889 889 890 890 890 891 891 891 892 892 892 891 891 890 889 887 885 884 881 879 876 875 873 870 868 867 864 862 861 859 856 855 852 848 846 841 839 836 833 829 827 826 825 824 824 824 824 824 824 824 824 825 825 825 825 825 825 825 825 825 825 825 825 825 825 825 825 825 825 825 825 825 825 825 825 825 825 825 825 825 825 825 825 825 825 825 825 825 825 825 825 825 825 825 825 825 825 825 825 826 826 826 826 826 826 826 826 825 825 825 825 825 826 826 826 826 826 826 826 826 826 826 826 826 826 826 826 826 826 826 826 826 826 826 826 826 826 826 825 825 825 826 826 826 826 826 827 827 827 827 827 827 827 827 827 827 827 827 827 826 826 826 826 0 0 0 0
0 0 0 0 0 0 0 0 0 0 0 0 0 0 0 0 0 0 0 0 0 0 0 0 0 0 0 0 0 0 0 0 0 0 0 0 0 0 0 0 0 0 0 0 0 0 0 0 0 0 0 0 0 0 0 0 0 0 0 0 0 0 0 0 0 0 0 0 0 0 0 0 0 0 0 0 0 0 0 0 0 0 0 0 0 0 0 0 879 879 878 876 875 875 874 874 874 873 873 872 872 870 869 868 867 866 866 866 867 868 868 869 870 872 872 872 872 872 870 870 870 872 873 874 876 0 0 0 0 0 0 0 0 0 0 0 0 0 0 876 876 875 874 875 875 0 0 0 0 0 0 0 0 0 0 0 0 0 0 0 0 0 0 0 0 0 0 0 0 0 0 0 0 0 0 886 885 885 884 882 881 879 875 873 870 867 866 864 863 862 862 863 862 863 863 864 864 864 864 864 864 864 864 863 863 863 862 862 861 860 859 857 857 856 855 855 854 854 853 853 853 853 853 853 852 850 850 849 848 847 846 845 844 843 843 841 840 840 839 839 839 839 839 839 839 838 838 837 835 834 833 830 829 828 827 826 826 825 825 824 824 824 824 824 824 823 823 823 823 822 822 821 821 820 819 819 818 818 816 816 816 816 818 820 822 826 830 836 844 852 859 864 872 875 879 881 884 885 886 887 887 887 887 889 887 887 887 887 887 887 887 887 887 889 889 889 890 890 891 891 891 891 892 891 891 890 889 887 0 0 0 880 878 875 874 872 870 868 867 866 863 862 860 859 856 854 850 846 843 839 836 831 829 826 825 824 823 823 823 823 824 824 824 824 824 824 824 825 825 825 825 825 825 825 825 825 825 825 825 825 825 825 825 825 825 825 825 825 825 825 825 825 825 825 825 825 825 825 825 825 825 825 825 825 825 825 825 825 825 825 825 825 825 825 825 825 825 825 825 825 825 825 825 825 825 825 825 825 825 825 825 825 825 825 825 825 825 825 825 825 825 825 825 825 825 825 825 825 825 825 825 825 825 825 825 825 825 826 826 826 826 826 826 827 827 827 827 827 826 826 826 826 826 826 826 826 0 0 0 0
