0 0 0 0 0 0 0 0 0 0 0 0 0 0 0 0 0 0 0 0 0 0 0 0 0 0 0 0 0 0 0 0 0 0 0 0 0 0 0 0 0 0 0 0 0 0 0 0 0 0 0 0 0 0 0 0 0 0 0 0 0 0 0 0 0 0 0 0 0 0 0 0 0 0 0 0 0 0 0 0 0 0 0 0 0 0 0 0 0 0 0 0 0 0 0 0 0 0 0 0 0 0 0 0 0 0 0 0 0 0 0 0 0 0 0 0 0 0 0 0 0 0 0 0 0 0 0 0 0 0 0 0 0 0 0 0 0 0 0 0 0 0 0 0 0 0 0 0 0 0 0 0 0 0 0 0 0 0 0 0 0 0 0 0 0 0 0 0 0 0 0 0 0 0 0 0 0 0 0 0 0 0 0 0 0 0 0 0 0 0 0 0 0 0 0 0 0 0 0 0 0 0 0 0 0 0 0 0 0 0 0 0 0 0 0 0 0 0 0 0 0 0 0 0 0 0 0 0 0 0 0 0 0 0 0 0 0 0 0 0 0 0 0 0 0 0 0 0 0 0 0 0 0 0 0 0 0 0 0 0 0 0 0 0 0 0 0 0 0 0 0 0 0 0 0 0 0 0 0 0 0 0 0 0 0 0 0 0 0 0 0 0 0 0 0 0 0 0 0 0 0 0 0 0 0 0 0 0 0 0 0 0 0 0 0 0 0 0 0 0 0 0 0 0 0 0 0 0 0 0 0 0 0 0 0 0 0 0 0 0 0 0 0 0 0 0 0 0 0 0 0 0 0 0 0 0 0 0 0 0 0 0 0 0 0 0 0 0 0 0 0 0 0 0 0 0 0 0 0 0 0 0 0 0 0 0 0 0 0 0 0 695 693 692 690 689 689 688 687 686 686 686 686 686 686 686 687 687 687 688 688 688 688 687 688 688 687 0 0 0 0 0 0 0 0 0 0 0 0 0 0 0 0 0 0 0 0 0 0 0 0 0 0 0 0 0 0 736 736 735 735 735 735 736 736 735 734 734 734 733 732 731 731 731 731 730 729 730 0 0 0 0 0 0 0 0 0 0 0 0
0 0 0 0 0 0 0 0 0 0 0 0 0 0 0 0 0 0 0 0 0 0 0 0 0 0 0 0 0 0 0 0 0 0 0 0 0 0 0 0 0 0 0 0 0 0 0 0 0 0 0 0 0 0 0 0 0 0 0 0 0 0 0 0 0 0 0 0 0 0 0 0 0 0 0 0 0 0 0 0 0 0 0 0 0 0 0 0 0 0 0 0 0 0 0 0 0 0 0 0 0 0 0 0 0 0 0 0 0 0 0 0 0 0 0 0 0 0 0 0 0 0 0 0 0 0 0 0 0 0 0 0 0 0 0 0 0 0 0 0 0 0 0 0 0 0 0 0 0 0 0 0 0 0 0 0 0 0 0 0 0 0 0 0 0 0 0 0 0 0 0 0 0 0 0 0 0 0 0 0 0 0 0 0 0 0 0 0 0 0 0 0 0 0 0 0 0 0 0 0 0 0 0 0 0 0 0 0 0 0 0 0 0 0 0 0 0 0 0 0 0 0 0 0 0 0 0 0 0 0 0 0 0 0 0 0 0 0 0 0 0 0 0 0 0 0 0 0 0 0 0 0 0 0 0 0 0 0 0 0 0 0 0 0 0 0 0 0 0 0 0 0 0 0 0 0 0 0 0 0 0 0 0 0 0 0 0 0 0 0 0 0 0 0 0 0 0 0 0 0 0 0 0 0 0 0 0 0 0 0 0 0 0 0 0 0 0 0 0 0 0 0 0 0 0 0 0 0 0 0 0 0 0 0 0 0 0 0 0 0 0 0 0 0 0 0 0 0 0 0 0 0 0 0 0 0 0 0 0 0 0 0 0 0 0 0 0 0 0 0 0 0 0 0 0 0 0 0 0 0 0 0 0 0 0 0 0 0 0 0 697 695 693 692 691 689 689 688 688 687 686 686 686 686 686 686 686 687 687 687 687 687 687 687 687 687 687 687 0 0 0 0 0 0 0 0 0 0 0 0 0 0 0 0 0 0 0 0 0 0 0 0 0 0 0 0 0 737 736 736 736 736 736 736 736 736 735 734 734 732 732 732 731 731 730 730 730 731 730 731 730 0 0 0 0 0 0 0 0 0
0 0 0 0 0 0 0 0 0 0 0 0 0 0 0 0 0 0 0 0 0 0 0 0 0 0 0 0 0 0 0 0 0 0 0 0 0 0 0 0 0 0 0 0 0 0 0 0 0 0 0 0 0 0 0 0 0 0 0 0 0 0 0 0 0 0 0 0 0 0 0 0 0 0 0 0 0 0 0 0 0 0 0 0 0 0 0 0 0 0 0 0 0 0 0 0 0 0 0 0 0 0 0 0 0 0 0 0 0 0 0 0 0 0 0 0 0 0 0 0 0 0 0 0 0 0 0 0 0 0 0 0 0 0 0 0 0 0 0 0 0 0 0 0 0 0 0 0 0 0 0 0 0 0 0 0 0 0 0 0 0 0 0 0 0 0 0 0 0 0 0 0 0 0 0 0 0 0 0 0 0 0 0 0 0 0 0 0 0 0 0 0 0 0 0 0 0 0 0 0 0 0 0 0 0 0 0 0 0 0 0 0 0 0 0 0 0 0 0 0 0 0 0 0 0 0 0 0 0 0 0 0 0 0 0 0 0 0 0 0 0 0 0 0 0 0 0 0 0 0 0 0 0 0 0 0 0 0 0 0 0 0 0 0 0 0 0 0 0 0 0 0 0 0 0 0 0 0 0 0 0 0 0 0 0 0 0 0 0 0 0 0 0 0 0 0 0 0 0 0 0 0 0 0 0 0 0 0 0 0 0 0 0 0 0 0 0 0 0 0 0 0 0 0 0 0 0 0 0 0 0 0 0 0 0 0 0 0 0 0 0 0 0 0 0 0 0 0 0 0 0 0 0 0 0 0 0 0 0 0 0 0 0 0 0 0 0 0 0 0 0 0 0 0 0 0 0 0 0 0 0 0 0 0 0 0 0 0 0 700 698 695 694 692 691 690 689 689 688 687 687 686 686 686 686 686 687 687 687 687 687 687 687 687 687 687 686 686 686 0 0 0 0 0 0 0 0 0 0 0 0 0 0 0 0 0 0 0 0 0 0 0 0 0 0 0 0 737 737 737 737 737 736 736 736 736 735 735 734 733 732 732 732 731 731 731 731 731 731 731 731 731 732 0 0 0 0 0 0 0
0 0 0 0 0 0 0 0 0 0 0 0 0 0 0 0 0 0 0 0 0 0 0 0 0 0 0 0 0 0 0 0 0 0 0 0 0 0 0 0 0 0 0 0 0 0 0 0 0 0 0 0 0 0 0 0 0 0 0 0 0 0 0 0 0 0 0 0 0 0 0 0 0 0 0 0 0 0 0 0 0 0 0 0 0 0 0 0 0 0 0 0 0 0 0 0 0 0 0 0 0 0 0 0 0 0 0 0 0 0 0 0 0 0 0 0 0 0 0 0 0 0 0 0 0 0 0 0 0 0 0 0 0 0 0 0 0 0 0 0 0 0 0 0 0 0 0 0 0 0 0 0 0 0 0 0 0 0 0 0 0 0 0 0 0 0 0 0 0 0 0 0 0 0 0 0 0 0 0 0 0 0 0 0 0 0 0 0 0 0 0 0 0 0 0 0 0 0 0 0 0 0 0 0 0 0 0 0 0 0 0 0 0 0 0 0 0 0 0 0 0 0 0 0 0 0 0 0 0 0 0 0 0 0 0 0 0 0 0 0 0 0 0 0 0 0 0 0 0 0 0 0 0 0 0 0 0 0 0 0 0 0 0 0 0 0 0 0 0 0 0 0 0 0 0 0 0 0 0 0 0 0 0 0 0 0 0 0 0 0 0 0 0 0 0 0 0 0 0 0 0 0 0 0 0 0 0 0 0 0 0 0 0 0 0 0 0 0 0 0 0 0 0 0 0 0 0 0 0 0 0 0 0 0 0 0 0 0 0 0 0 0 0 0 0 0 0 0 0 0 0 0 0 0 0 0 0 0 0 0 0 0 0 0 0 0 0 0 0 0 0 0 0 0 0 0 0 0 0 0 0 0 0 0 0 0 0 0 0 701 699 696 695 693 692 691 690 689 689 688 688 688 687 687 687 687 687 687 687 687 687 687 687 687 687 687 686 686 686 686 0 0 0 0 0 0 0 0 0 0 0 0 0 0 0 0 0 0 0 0 0 0 0 0 0 0 0 0 737 737 737 737 737 737 737 736 736 736 735 734 733 732 732 732 732 732 732 732 732 732 732 732 732 732 0 0 0 0 0 0
0 0 0 0 0 0 0 0 0 0 0 0 0 0 0 0 0 0 0 0 0 0 0 0 0 0 0 0 0 0 0 0 0 0 0 0 0 0 0 0 0 0 0 0 0 0 0 0 0 0 0 0 0 0 0 0 0 0 0 0 0 0 0 0 0 0 0 0 0 0 0 0 0 0 0 0 0 0 0 0 0 0 0 0 0 0 0 0 0 0 0 0 0 0 0 0 0 0 0 0 0 0 0 0 0 0 0 0 0 0 0 0 0 0 0 0 0 0 0 0 0 0 0 0 0 0 0 0 0 0 0 0 0 0 0 0 0 0 0 0 0 0 0 0 0 0 0 0 0 0 0 0 0 0 0 0 0 0 0 0 0 0 0 0 0 0 0 0 0 0 0 0 0 0 0 0 0 0 0 0 0 0 0 0 0 0 0 0 0 0 0 0 0 0 0 0 0 0 0 0 0 0 0 0 0 0 0 0 0 0 0 0 0 0 0 0 0 0 0 0 0 0 0 0 0 0 0 0 0 0 0 0 0 0 0 0 0 0 0 0 0 0 0 0 0 0 0 0 0 0 0 0 0 0 0 0 0 0 0 0 0 0 0 0 0 0 0 0 0 0 0 0 0 0 0 0 0 0 0 0 0 0 0 0 0 0 0 0 0 0 0 0 0 0 0 0 0 0 0 0 0 0 0 0 0 0 0 0 0 0 0 0 0 0 0 0 0 0 0 0 0 0 0 0 0 0 0 0 0 0 0 0 0 0 0 0 0 0 0 0 0 0 0 0 0 0 0 0 0 0 0 0 0 0 0 0 0 0 0 0 0 0 0 0 0 0 0 0 0 0 0 0 0 0 0 0 0 0 0 0 0 0 0 0 0 0 0 0 704 702 699 697 695 694 692 692 691 690 689 689 689 689 688 688 688 688 687 688 688 687 687 687 688 687 687 687 686 686 686 686 0 0 0 0 0 0 0 0 0 0 0 0 0 0 0 0 0 0 0 0 0 0 0 0 0 0 0 0 738 738 738 738 738 738 738 738 737 736 736 735 734 734 733 733 732 732 732 732 732 732 732 733 733 733 734 0 0 0 0 0
0 0 0 0 0 0 0 0 0 0 0 0 0 0 0 0 0 0 0 0 0 0 0 0 0 0 0 0 0 0 0 0 0 0 0 0 0 0 0 0 0 0 0 0 0 0 0 0 0 0 0 0 0 0 0 0 0 0 0 0 0 0 0 0 0 0 0 0 0 0 0 0 0 0 0 0 0 0 0 0 0 0 0 0 0 0 0 0 0 0 0 0 0 0 0 0 0 0 0 0 0 0 0 0 0 0 0 0 0 0 0 0 0 0 0 0 0 0 0 0 0 0 0 0 0 0 0 0 0 0 0 0 0 0 0 0 0 0 0 0 0 0 0 0 0 0 0 0 0 0 0 0 0 0 0 0 0 0 0 0 0 0 0 0 0 0 0 0 0 0 0 0 0 0 0 0 0 0 0 0 0 0 0 0 0 0 0 0 0 0 0 0 0 0 0 0 0 0 0 0 0 0 0 0 0 0 0 0 0 0 0 0 0 0 0 0 0 0 0 0 0 0 0 0 0 0 0 0 0 0 0 0 0 0 0 0 0 0 0 0 0 0 0 0 0 0 0 0 0 0 0 0 0 0 0 0 0 0 0 0 0 0 0 0 0 0 0 0 0 0 0 0 0 0 0 0 0 0 0 0 0 0 0 0 0 0 0 0 0 0 0 0 0 0 0 0 0 0 0 0 0 0 0 0 0 0 0 0 0 0 0 0 0 0 0 0 0 0 0 0 0 0 0 0 0 0 0 0 0 0 0 0 0 0 0 0 0 0 0 0 0 0 0 0 0 0 0 0 0 0 0 0 0 0 0 0 0 0 0 0 0 0 0 0 0 0 0 0 0 0 0 0 0 0 0 0 0 0 0 0 0 0 0 0 0 0 0 0 705 702 700 698 696 695 693 692 692 691 690 690 689 689 689 689 689 689 688 689 689 688 688 688 688 688 688 687 687 686 686 686 0 0 0 0 0 0 0 0 0 0 0 0 0 0 0 0 0 0 0 0 0 0 0 0 0 0 0 0 739 738 738 738 738 738 738 738 738 737 737 736 736 735 735 734 734 734 734 734 734 734 734 734 734 735 735 0 0 0 0 0
0 0 0 0 0 0 0 0 0 0 0 0 0 0 0 0 0 0 0 0 0 0 0 0 0 0 0 0 0 0 0 0 0 0 0 0 0 0 0 0 0 0 0 0 0 0 0 0 0 0 0 0 0 0 0 0 0 0 0 0 0 0 0 0 0 0 0 0 0 0 0 0 0 0 0 0 0 0 0 0 0 0 0 0 0 0 0 0 0 0 0 0 0 0 0 0 0 0 0 0 0 0 0 0 0 0 0 0 0 0 0 0 0 0 0 0 0 0 0 0 0 0 0 0 0 0 0 0 0 0 0 0 0 0 0 0 0 0 0 0 0 0 0 0 0 0 0 0 0 0 0 0 0 0 0 0 0 0 0 0 0 0 0 0 0 0 0 0 0 0 0 0 0 0 0 0 0 0 0 0 0 0 0 0 0 0 0 0 0 0 0 0 0 0 0 0 0 0 0 0 0 0 0 0 0 0 0 0 0 0 0 0 0 0 0 0 0 0 0 0 0 0 0 0 0 0 0 0 0 0 0 0 0 0 0 0 0 0 0 0 0 0 0 0 0 0 0 0 0 0 0 0 0 0 0 0 0 0 0 0 0 0 0 0 0 0 0 0 0 0 0 0 0 0 0 0 0 0 0 0 0 0 0 0 0 0 0 0 0 0 0 0 0 0 0 0 0 0 0 0 0 0 0 0 0 0 0 0 0 0 0 0 0 0 0 0 0 0 0 0 0 0 0 0 0 0 0 0 0 0 0 0 0 0 0 0 0 0 0 0 0 0 0 0 0 0 0 0 0 0 0 0 0 0 0 0 0 0 0 0 0 0 0 0 0 0 0 0 0 0 0 0 0 0 0 0 0 0 0 0 0 0 0 0 0 0 0 0 706 704 702 699 697 695 694 693 692 692 691 691 691 690 690 690 689 689 689 689 689 689 689 689 689 689 688 688 687 687 686 686 0 0 0 0 0 0 0 0 0 0 0 0 0 0 0 0 0 0 0 0 0 0 0 0 0 0 0 0 739 739 738 738 738 738 738 738 738 738 738 737 737 736 736 736 736 736 736 736 735 735 735 735 736 736 736 736 0 0 0 0
0 0 0 0 0 0 0 0 0 0 0 0 0 0 0 0 0 0 0 0 0 0 0 0 0 0 0 0 0 0 0 0 0 0 0 0 0 0 0 0 0 0 0 0 0 0 0 0 0 0 0 0 0 0 0 0 0 0 0 0 0 0 0 0 0 0 0 0 0 0 0 0 0 0 0 0 0 0 0 0 0 0 0 0 0 0 0 0 0 0 0 0 0 0 0 0 0 0 0 0 0 0 0 0 0 0 0 0 0 0 0 0 0 0 0 0 0 0 0 0 0 0 0 0 0 0 0 0 0 0 0 0 0 0 0 0 0 0 0 0 0 0 0 0 0 0 0 0 0 0 0 0 0 0 0 0 0 0 0 0 0 0 0 0 0 0 0 0 0 0 0 0 0 0 0 0 0 0 0 0 0 0 0 0 0 0 0 0 0 0 0 0 0 0 0 0 0 0 0 0 0 0 0 0 0 0 0 0 0 0 0 0 0 0 0 0 0 0 0 0 0 0 0 0 0 0 0 0 0 0 0 0 0 0 0 0 0 0 0 0 0 0 0 0 0 0 0 0 0 0 0 0 0 0 0 0 0 0 0 0 0 0 0 0 0 0 0 0 0 0 0 0 0 0 0 0 0 0 0 0 0 0 0 0 0 0 0 0 0 0 0 0 0 0 0 0 0 0 0 0 0 0 0 0 0 0 0 0 0 0 0 0 0 0 0 0 0 0 0 0 0 0 0 0 0 0 0 0 0 0 0 0 0 0 0 0 0 0 0 0 0 0 0 0 0 0 0 0 0 0 0 0 0 0 0 0 0 0 0 0 0 0 0 0 0 0 0 0 0 0 0 0 0 0 0 0 0 0 0 0 0 0 0 0 0 0 0 709 707 705 702 699 698 696 695 694 693 693 692 692 692 692 691 691 691 690 690 690 690 690 689 689 689 689 689 689 688 687 687 686 0 0 0 0 0 0 0 0 0 0 0 0 0 0 0 0 0 0 0 0 0 0 0 0 0 0 0 0 740 739 740 739 739 739 739 739 739 739 738 738 738 738 738 738 738 738 737 737 737 737 737 737 737 737 737 737 0 0 0 0
0 0 0 0 0 0 0 0 0 0 0 0 0 0 0 0 0 0 0 0 0 0 0 0 0 0 0 0 0 0 0 0 0 0 0 0 0 0 0 0 0 0 0 0 0 0 0 0 0 0 0 0 0 0 0 0 0 0 0 0 0 0 0 0 0 0 0 0 0 0 0 0 0 0 0 0 0 0 0 0 0 0 0 0 0 0 0 0 0 0 0 0 0 0 0 0 0 0 0 0 0 0 0 0 0 0 0 0 0 0 0 0 0 0 0 0 0 0 0 0 0 0 0 0 0 0 0 0 0 0 0 0 0 0 0 0 0 0 0 0 0 0 0 0 0 0 0 0 0 0 0 0 0 0 0 0 0 0 0 0 0 0 0 0 0 0 0 0 0 0 0 0 0 0 0 0 0 0 0 0 0 0 0 0 0 0 0 0 0 0 0 0 0 0 0 0 0 0 0 0 0 0 0 0 0 0 0 0 0 0 0 0 0 0 0 0 0 0 0 0 0 0 0 0 0 0 0 0 0 0 0 0 0 0 0 0 0 0 0 0 0 0 0 0 0 0 0 0 0 0 0 0 0 0 0 0 0 0 0 0 0 0 0 0 0 0 0 0 0 0 0 0 0 0 0 0 0 0 0 0 0 0 0 0 0 0 0 0 0 0 0 0 0 0 0 0 0 0 0 0 0 0 0 0 0 0 0 0 0 0 0 0 0 0 0 0 0 0 0 0 0 0 0 0 0 0 0 0 0 0 0 0 0 0 0 0 0 0 0 0 0 0 0 0 0 0 0 0 0 0 0 0 0 0 0 0 0 0 0 0 0 0 0 0 0 0 0 0 0 0 0 0 0 0 0 0 0 0 0 0 0 0 0 0 0 0 0 710 708 706 703 701 699 698 695 695 695 694 694 693 693 693 692 692 692 692 692 692 691 691 690 690 690 690 689 689 689 688 687 687 0 0 0 0 0 0 0 0 0 0 0 0 0 0 0 0 0 0 0 0 0 0 0 0 0 0 0 0 0 740 740 740 740 740 740 740 739 739 739 739 739 739 738 738 738 738 738 738 738 738 738 738 738 738 738 738 0 0 0 0
0 0 0 0 0 0 0 0 0 0 0 0 0 0 0 0 0 0 0 0 0 0 0 0 0 0 0 0 0 0 0 0 0 0 0 0 0 0 0 0 0 0 0 0 0 0 0 0 0 0 0 0 0 0 0 0 0 0 0 0 0 0 0 0 0 0 0 0 0 0 0 0 0 0 0 0 0 0 0 0 0 0 0 0 0 0 0 0 0 0 0 0 0 0 0 0 0 0 0 0 0 0 0 0 0 0 0 0 0 0 0 0 0 0 0 0 0 0 0 0 0 0 0 0 0 0 0 0 0 0 0 0 0 0 0 0 0 0 0 0 0 0 0 0 0 0 0 0 0 0 0 0 0 0 0 0 0 0 0 0 0 0 0 0 0 0 0 0 0 0 0 0 0 0 0 0 0 0 0 0 0 0 0 0 0 0 0 0 0 0 0 0 0 0 0 0 0 0 0 0 0 0 0 0 0 0 0 0 0 0 0 0 0 0 0 0 0 0 0 0 0 0 0 0 0 0 0 0 0 0 0 0 0 0 0 0 0 0 0 0 0 0 0 0 0 0 0 0 0 0 0 0 0 0 0 0 0 0 0 0 0 0 0 0 0 0 0 0 0 0 0 0 0 0 0 0 0 0 0 0 0 0 0 0 0 0 0 0 0 0 0 0 0 0 0 0 0 0 0 0 0 0 0 0 0 0 0 0 0 0 0 0 0 0 0 0 0 0 0 0 0 0 0 0 0 0 0 0 0 0 0 0 0 0 0 0 0 0 0 0 0 0 0 0 0 0 0 0 0 0 0 0 0 0 0 0 0 0 0 0 0 0 0 0 0 0 0 0 0 0 0 0 0 0 0 0 0 0 0 0 0 0 0 0 0 0 0 711 709 707 705 702 701 699 697 696 695 695 695 695 695 695 694 694 693 693 693 692 692 692 692 692 692 691 690 689 689 689 689 688 0 0 0 0 0 0 0 0 0 0 0 0 0 0 0 0 0 0 0 0 0 0 0 0 0 0 0 0 0 0 741 741 741 741 741 741 740 740 740 740 740 740 740 740 740 740 740 740 740 740 740 739 739 739 739 738 0 0 0 0
0 0 0 0 0 0 0 0 0 0 0 0 0 0 0 0 0 0 0 0 0 0 0 0 0 0 0 0 0 0 0 0 0 0 0 0 0 0 0 0 0 0 0 0 0 0 0 0 0 0 0 0 0 0 0 0 0 0 0 0 0 0 0 0 0 0 0 0 0 0 0 0 0 0 0 0 0 0 0 0 0 0 0 0 0 0 0 0 0 0 0 0 0 0 0 0 0 0 0 0 0 0 0 0 0 0 0 0 0 0 0 0 0 0 0 0 0 0 0 0 0 0 0 0 0 0 0 0 0 0 0 0 0 0 0 0 0 0 0 0 0 0 0 0 0 0 0 0 0 0 0 0 0 0 0 0 0 0 0 0 0 0 0 0 0 0 0 0 0 0 0 0 0 0 0 0 0 0 0 0 0 0 0 0 0 499 500 500 499 500 500 0 0 0 0 0 0 0 503 503 503 504 504 505 505 505 506 506 0 0 0 0 0 0 0 0 0 0 0 0 0 0 0 0 0 0 0 0 0 0 0 0 0 0 0 0 0 0 0 0 0 0 0 0 0 0 0 0 0 0 0 0 0 0 0 0 0 0 0 0 0 0 0 0 0 0 0 0 0 0 0 0 0 0 0 0 0 0 0 0 0 0 0 0 0 0 0 0 0 0 0 0 0 0 0 0 0 0 0 0 0 0 0 0 0 0 0 0 0 0 0 0 0 0 0 0 0 0 0 0 0 0 0 0 0 0 0 0 0 0 0 0 0 0 0 0 0 0 0 0 0 0 0 0 0 0 0 0 0 0 0 0 0 0 0 0 0 0 0 0 0 0 0 0 0 0 0 0 0 0 0 0 0 0 0 0 0 0 0 0 0 0 0 0 0 0 0 712 710 708 706 703 702 699 699 697 697 696 696 696 696 695 695 695 695 695 694 694 694 693 693 693 692 692 692 691 690 689 689 0 0 0 0 0 0 0 0 0 0 0 0 0 0 0 0 0 0 0 0 0 0 0 0 0 0 0 0 0 0 0 741 741 741 741 741 741 741 741 741 741 741 741 741 741 741 741 741 742 741 741 741 740 740 740 739 739 0 0 0 0
0 0 0 0 0 0 0 0 0 0 0 0 0 0 0 0 0 0 0 0 0 0 0 0 0 0 0 0 0 0 0 0 0 0 0 0 0 0 0 0 0 0 0 0 0 0 0 0 0 0 0 0 0 0 0 0 0 0 0 0 0 0 0 0 0 0 0 0 0 0 0 0 0 0 0 0 0 0 0 0 0 0 0 0 0 0 0 0 0 0 0 0 0 0 0 0 0 0 0 0 0 0 0 0 0 0 0 0 0 0 0 0 0 0 0 0 0 0 0 0 0 0 0 0 0 0 0 0 0 0 0 0 0 0 0 0 0 0 0 0 0 0 0 0 493 493 493 493 494 493 0 0 0 0 0 0 0 0 0 0 0 0 0 0 0 0 0 0 0 0 0 0 0 0 0 0 0 0 0 0 0 500 500 500 499 499 499 499 499 500 500 500 500 501 501 501 502 502 502 503 503 504 504 504 505 505 506 506 506 506 507 507 507 0 0 0 0 0 0 0 0 0 0 0 0 0 0 0 0 0 0 0 0 0 0 0 0 0 0 0 0 0 0 0 0 0 0 0 0 0 0 0 0 0 0 0 0 0 0 0 0 0 0 0 0 0 0 0 0 0 0 0 0 0 0 0 0 0 0 0 0 0 0 0 0 0 0 0 0 0 0 0 0 0 0 0 0 0 0 0 0 0 0 0 0 0 0 0 0 0 0 0 0 0 0 0 0 0 0 0 0 0 0 0 0 0 0 0 0 0 0 0 0 0 0 0 0 0 0 0 0 0 0 0 0 0 0 0 0 0 0 0 0 0 0 0 0 0 0 0 0 0 0 0 0 0 0 0 0 0 0 0 0 0 0 0 0 0 0 0 0 0 0 0 0 0 714 713 711 709 706 704 702 701 699 699 698 698 698 698 698 697 697 697 696 696 695 695 695 695 694 694 694 693 692 692 691 690 690 0 0 0 0 0 0 0 0 0 0 0 0 0 0 0 0 0 0 0 0 0 0 0 0 0 0 0 0 0 0 0 0 742 742 741 741 741 741 742 741 741 741 741 742 742 742 742 742 742 742 742 742 741 741 741 740 740 0 0 0 0
0 0 0 0 0 0 0 0 0 0 0 0 0 0 0 0 0 0 0 0 0 0 0 0 0 0 0 0 0 0 0 0 0 0 0 0 0 0 0 0 0 0 0 0 0 0 0 0 0 0 0 0 0 0 0 0 0 0 0 0 0 0 0 0 0 0 0 0 0 0 0 0 0 0 0 0 0 0 0 0 0 0 0 0 0 0 0 0 0 0 0 0 0 0 0 0 0 0 0 0 0 0 484 484 484 484 484 485 484 485 485 485 0 0 0 0 0 0 0 0 0 0 0 0 0 0 0 0 0 0 0 0 0 0 0 0 0 0 0 0 0 0 0 492 492 493 493 493 493 493 493 493 493 0 0 0 0 0 0 0 495 495 495 496 496 495 495 496 496 0 0 0 0 0 0 0 0 499 499 500 499 499 499 499 499 499 499 499 499 499 500 500 500 500 501 501 501 502 502 502 502 503 504 504 504 505 505 505 506 506 506 506 506 506 506 506 507 506 507 0 0 0 0 0 0 0 0 0 0 0 0 0 0 0 0 0 0 0 0 0 0 0 0 0 0 0 0 0 0 0 0 0 0 0 0 0 0 0 0 0 0 0 0 0 0 0 0 0 0 0 0 0 0 0 0 0 0 0 0 0 0 0 0 0 0 0 0 0 0 0 0 0 0 0 0 0 0 0 0 0 0 0 0 0 0 0 0 0 0 0 0 0 0 0 0 0 0 0 0 0 0 0 0 0 0 0 0 0 0 0 0 0 0 0 0 0 0 0 0 0 0 0 0 0 0 0 0 0 0 0 0 0 0 0 0 0 0 0 0 0 0 0 0 0 0 0 0 0 0 0 0 0 0 0 0 0 0 0 0 0 0 0 0 0 0 0 714 714 712 710 708 705 704 702 701 700 699 699 699 699 699 699 699 699 698 0 697 696 696 696 695 695 695 695 694 693 692 691 691 0 0 0 0 0 0 0 0 0 0 0 0 0 0 0 0 0 0 0 0 0 0 0 0 0 0 0 0 0 0 0 0 0 742 742 741 742 742 742 742 742 742 742 742 743 743 743 743 743 743 742 742 742 741 741 741 741 0 0 0 0
0 0 0 0 0 0 0 0 0 0 0 0 0 0 0 0 0 0 0 0 0 0 0 0 0 0 0 0 0 0 0 0 0 0 0 0 0 0 0 0 0 0 0 0 0 0 0 0 0 0 0 0 0 0 0 0 0 0 0 0 0 0 0 0 0 0 0 0 0 0 0 0 0 0 0 0 0 0 0 0 0 0 0 0 0 0 0 0 0 0 0 0 0 0 0 0 0 0 483 483 483 484 483 484 484 484 484 484 485 485 485 485 485 486 0 0 0 0 0 0 0 0 0 0 0 0 0 0 0 0 0 0 0 0 0 0 0 0 0 490 490 490 491 491 492 492 492 492 493 492 493 493 493 493 493 493 494 495 494 495 494 495 495 495 495 495 495 495 496 496 497 497 498 498 498 499 499 499 499 499 499 499 498 498 498 498 498 498 498 499 499 500 500 500 500 501 501 501 502 502 502 503 503 503 504 504 504 505 505 505 505 505 505 505 506 506 506 506 506 507 507 507 0 0 0 0 0 0 0 0 0 0 0 0 0 0 0 0 0 0 0 0 0 0 0 0 0 0 0 0 0 0 0 0 0 0 0 0 0 0 0 0 0 0 0 0 0 0 0 0 0 0 0 0 0 0 0 0 0 0 0 0 0 0 0 0 0 0 0 0 0 0 0 0 0 0 0 0 0 0 0 0 0 0 0 0 0 0 0 0 0 0 0 0 0 0 0 0 0 0 0 0 0 0 0 0 0 0 0 0 0 0 0 0 0 0 0 0 0 0 0 0 0 0 0 0 0 0 0 0 0 0 0 0 0 0 0 0 0 0 0 0 0 0 0 0 0 0 0 0 0 0 0 0 0 0 0 0 0 0 0 0 0 0 0 0 715 714 713 710 709 706 705 703 702 701 701 700 700 700 700 700 700 699 699 699 699 698 698 697 697 697 696 695 695 695 694 693 0 0 0 0 0 0 0 0 0 0 0 0 0 0 0 0 0 0 0 0 0 0 0 0 0 0 0 0 0 0 0 0 0 0 0 742 742 742 742 742 742 742 742 742 743 743 743 743 743 743 743 743 743 743 742 742 742 741 0 0 0 0
0 0 0 0 0 0 0 0 0 0 0 0 0 0 0 0 0 0 0 0 0 0 0 0 0 0 470 471 470 471 471 471 471 0 0 0 0 0 0 0 0 0 0 0 0 0 0 0 0 0 0 0 0 0 0 0 0 0 0 0 0 0 0 0 0 0 0 0 0 0 0 0 0 0 0 0 0 0 0 0 0 0 0 0 0 0 0 0 0 0 0 0 0 0 0 482 482 483 483 483 483 483 484 484 484 484 484 484 484 484 485 485 485 485 486 486 0 0 0 0 0 0 0 0 0 0 0 0 0 0 0 0 0 0 0 0 489 489 489 489 490 490 490 491 491 492 492 492 492 492 493 493 493 493 493 493 494 494 494 494 494 494 495 495 495 495 495 495 495 496 496 497 497 497 498 498 498 498 498 498 498 498 498 498 498 498 498 498 498 498 499 499 499 500 500 500 500 501 501 502 502 502 503 503 503 504 504 504 504 504 504 504 504 505 505 505 506 506 506 506 506 507 507 507 507 508 508 0 0 0 0 0 0 0 0 0 0 0 0 0 0 0 0 0 0 0 0 0 0 0 0 0 0 0 0 0 0 0 0 0 0 0 0 0 0 0 0 0 0 0 0 0 0 0 0 0 0 0 0 0 0 0 0 0 0 0 0 0 0 0 0 0 0 0 0 0 0 0 0 0 0 0 0 0 0 0 0 0 0 0 0 0 0 0 0 0 0 0 0 0 0 0 0 0 0 0 0 0 0 0 0 0 0 0 0 0 0 0 0 0 0 0 0 0 0 0 0 0 0 0 0 0 0 0 0 0 0 0 0 0 0 0 0 0 0 0 0 0 0 0 0 0 0 0 0 0 0 0 0 0 0 0 0 0 0 0 716 714 713 711 709 707 706 704 703 702 702 702 702 702 702 702 702 701 700 700 699 699 699 699 698 698 698 697 696 696 695 695 0 0 0 0 0 0 0 0 0 0 0 0 0 0 0 0 0 0 0 0 0 0 0 0 0 0 0 0 0 0 0 0 0 0 0 0 742 741 742 742 742 742 742 742 743 743 743 743 743 743 743 743 743 743 742 742 742 741 0 0 0 0
0 0 0 0 0 0 0 0 0 0 0 0 0 0 0 0 0 0 0 0 0 0 0 469 470 470 470 470 470 470 470 470 471 471 471 471 472 472 472 473 473 473 473 474 0 0 0 0 0 0 0 0 0 0 0 0 0 0 0 0 0 0 477 477 477 477 477 478 478 478 478 478 478 478 479 479 479 479 479 479 480 480 480 480 480 0 0 0 0 0 0 482 482 482 482 481 482 482 482 482 483 483 483 483 484 484 484 484 484 484 484 485 485 485 485 486 486 486 0 0 0 0 0 0 0 0 0 0 0 0 0 0 0 0 490 489 489 489 489 490 490 489 490 490 491 491 492 492 492 492 492 492 492 493 493 493 493 493 494 494 494 494 494 494 494 494 494 495 495 495 495 496 496 497 497 497 497 498 498 498 498 498 498 498 498 498 498 498 498 498 498 499 499 499 500 500 500 500 501 501 502 502 502 503 503 503 504 504 504 504 504 504 504 504 504 504 505 505 505 505 506 506 506 507 507 508 508 508 508 509 0 0 0 0 0 0 0 0 0 0 0 0 0 0 0 0 0 0 0 0 0 0 0 0 0 0 0 0 0 0 0 0 0 0 0 0 0 0 0 0 0 0 0 0 0 0 0 0 0 0 0 0 0 0 0 0 0 0 0 0 0 0 0 0 0 0 0 0 0 0 0 0 0 0 0 0 0 0 0 0 0 0 0 0 0 0 0 0 0 0 0 0 0 0 0 0 0 0 0 0 0 0 0 0 0 0 0 0 0 0 0 0 0 0 0 0 0 0 0 0 0 0 0 0 0 0 0 0 0 0 0 0 0 0 0 0 0 0 0 0 0 0 0 0 0 0 0 0 0 0 0 0 0 0 0 717 716 715 714 711 710 708 706 706 705 704 703 703 703 703 703 703 703 702 702 702 701 700 700 699 699 699 699 699 698 698 696 0 0 0 0 0 0 0 0 0 0 0 0 0 0 0 0 0 0 0 0 0 0 0 0 0 0 0 0 0 0 0 0 0 0 0 0 0 0 742 741 742 742 742 742 742 743 743 743 743 743 743 743 743 743 743 743 743 743 742 0 0 0 0
0 0 0 0 0 0 0 0 0 0 0 0 0 0 0 0 0 0 0 0 0 469 469 469 469 470 470 470 470 470 470 470 470 470 471 471 471 472 472 472 472 473 473 473 473 474 474 474 474 474 0 0 0 0 0 0 0 0 0 476 477 477 477 477 477 477 477 477 477 478 478 478 478 478 478 479 479 479 479 479 479 479 480 480 480 480 480 480 481 481 481 481 481 481 481 481 481 481 481 482 482 483 483 483 483 484 484 484 484 484 484 484 485 485 485 486 486 486 486 486 0 0 0 0 0 0 0 0 0 0 0 0 489 489 489 489 489 489 489 489 489 489 489 490 490 490 491 491 492 492 492 492 492 492 493 493 493 493 493 494 494 494 494 494 494 494 494 494 494 494 495 495 495 496 496 497 497 497 497 497 497 497 497 497 497 497 497 497 498 498 498 498 499 499 499 500 500 500 500 501 501 502 502 502 502 503 503 503 503 503 503 503 503 503 504 504 504 504 505 505 505 505 506 506 506 507 507 508 508 508 508 508 0 0 0 0 0 0 0 0 0 0 0 0 0 0 0 0 0 0 0 0 0 0 0 0 0 0 0 0 0 0 0 0 0 0 0 0 0 0 0 0 0 0 0 0 0 0 0 0 0 0 0 0 0 0 0 0 0 0 0 0 0 0 0 0 0 0 0 0 0 0 0 0 0 0 0 0 0 0 0 0 0 0 0 0 0 0 0 0 0 0 0 0 0 0 0 0 0 0 0 0 0 0 0 0 0 0 0 0 0 0 0 0 0 0 0 0 0 0 0 0 0 0 0 0 0 0 0 0 0 0 0 0 0 0 0 0 0 0 0 0 0 0 0 0 0 0 0 0 0 0 0 0 0 717 717 715 714 712 710 709 707 706 706 705 705 705 705 705 705 705 704 704 703 703 702 702 702 701 701 701 701 700 700 699 699 0 0 0 0 0 0 0 0 0 0 0 0 0 0 0 0 0 0 0 0 0 0 0 0 0 0 0 0 0 0 0 0 0 0 0 0 0 0 0 0 742 742 741 742 742 743 743 743 743 743 743 743 743 743 743 743 743 743 0 0 0 0 0
0 0 0 0 0 0 0 0 0 0 0 0 0 0 0 0 0 0 0 0 468 469 469 469 469 469 469 470 470 470 470 470 470 470 470 471 471 471 472 472 472 472 472 472 473 473 473 473 473 474 474 474 475 475 475 475 475 476 476 476 476 476 477 477 477 477 477 477 477 477 478 478 478 478 478 478 479 479 479 479 479 479 479 480 480 480 480 480 480 480 481 481 480 480 480 480 481 481 481 481 482 482 483 483 483 483 484 484 484 484 484 484 484 485 485 485 486 486 486 486 486 0 0 0 0 0 0 0 0 488 489 489 489 489 489 489 489 489 489 489 489 489 489 489 490 490 490 491 491 491 491 492 492 492 492 493 493 493 493 493 493 493 493 493 493 493 493 493 493 493 494 494 495 495 495 495 496 496 496 496 496 497 497 497 497 497 497 497 497 497 498 498 498 499 499 499 500 500 500 500 501 501 502 502 502 502 502 502 502 502 502 502 503 503 503 503 504 504 504 504 504 505 505 505 506 506 506 507 507 508 508 508 508 508 508 0 0 0 0 0 0 0 0 0 0 0 0 0 0 0 0 0 0 0 0 0 0 0 0 0 0 0 0 0 0 0 0 0 0 0 0 0 0 0 0 0 0 0 0 0 0 0 0 0 0 0 0 0 0 0 0 0 0 0 0 0 0 0 0 0 0 0 0 0 0 0 0 0 0 0 0 0 0 0 0 0 0 0 0 0 0 0 0 0 0 0 0 0 0 0 0 0 0 0 0 0 0 0 0 0 0 0 0 0 0 0 0 0 0 0 0 0 0 0 0 0 0 0 0 0 0 0 0 0 0 0 0 0 0 0 0 0 0 0 0 0 0 0 0 0 0 0 0 0 0 717 717 715 714 712 710 710 708 707 707 706 706 706 706 706 706 706 706 705 705 704 704 703 702 702 702 702 702 702 702 701 701 0 0 0 0 0 0 0 0 0 0 0 0 0 0 0 0 0 0 0 0 0 0 0 0 0 0 0 0 0 0 0 0 0 0 0 0 0 0 0 0 0 742 742 741 742 743 743 743 743 743 743 742 743 743 742 743 743 742 0 0 0 0 0
0 0 0 0 0 0 0 0 0 0 0 0 0 0 0 0 0 0 467 468 468 468 468 469 468 469 469 469 469 469 469 470 470 470 470 470 471 471 471 471 471 472 472 472 472 472 472 473 473 473 474 474 474 475 475 475 475 475 476 476 476 476 476 476 476 477 477 477 477 477 477 478 478 478 478 478 478 479 479 479 479 479 479 479 479 479 480 480 480 480 480 480 480 480 480 480 480 480 481 481 481 482 482 483 483 483 483 484 484 484 484 484 484 484 485 485 485 486 486 486 486 486 486 486 486 486 486 487 487 0 488 488 489 489 488 488 488 488 488 488 488 489 489 489 489 490 490 490 490 491 491 491 491 492 492 492 492 493 493 493 493 493 493 493 493 493 493 493 493 493 493 493 494 494 495 495 495 495 495 496 496 496 496 496 496 497 497 497 497 497 497 498 498 498 498 499 499 500 500 500 500 501 501 502 502 502 502 502 502 502 502 502 502 502 503 503 503 503 504 504 504 504 504 505 505 506 506 506 506 507 507 508 507 508 508 508 508 508 509 0 0 0 0 0 0 0 0 0 0 0 0 0 0 0 0 0 0 0 0 0 0 0 0 0 0 0 0 0 0 0 0 0 0 0 0 0 0 0 0 0 0 0 0 0 0 0 0 0 0 0 0 0 0 0 0 0 0 0 0 0 0 0 0 0 0 0 0 0 0 0 0 0 0 0 0 0 0 0 0 0 0 0 0 0 0 0 0 0 0 0 0 0 0 0 0 0 0 0 0 0 0 0 0 0 0 0 0 0 0 0 0 0 0 0 0 0 0 0 0 0 0 0 0 0 0 0 0 0 0 0 0 0 0 0 0 0 0 0 0 0 0 0 0 0 0 718 717 715 714 713 711 710 709 709 708 708 707 707 708 708 707 707 706 706 706 706 705 705 704 704 704 704 704 704 704 703 0 0 0 0 0 0 0 0 0 0 0 0 0 0 0 0 0 0 0 0 0 0 0 0 0 0 0 0 0 0 0 0 0 0 0 0 0 0 0 0 0 0 0 741 742 742 743 743 742 742 742 742 742 742 742 742 743 743 742 0 0 0 0 0
0 0 0 0 0 0 0 0 0 0 0 0 0 0 0 0 0 467 467 467 468 468 468 468 468 469 469 469 469 469 469 469 469 470 470 470 470 471 471 471 471 471 471 471 472 472 472 472 473 473 473 474 474 474 474 475 475 475 475 475 475 476 476 476 476 476 476 477 477 477 477 477 478 478 478 478 478 478 478 478 479 479 479 479 479 479 479 479 479 479 480 480 480 480 480 480 480 480 480 481 481 481 482 482 483 483 483 483 484 484 484 484 484 484 484 485 485 485 486 486 486 485 486 486 486 486 486 486 487 487 488 488 488 488 488 488 488 488 488 488 488 488 489 489 489 489 490 490 490 490 490 491 491 491 492 492 492 492 493 493 493 493 493 493 493 492 492 492 492 493 493 493 493 493 494 494 495 495 495 495 495 495 495 495 496 496 496 497 497 497 497 497 498 498 498 498 499 499 499 500 500 500 501 501 502 502 502 502 502 502 502 502 502 502 502 502 503 503 503 503 503 504 504 504 504 505 505 506 506 506 506 507 507 507 508 508 508 508 508 509 509 510 510 510 510 510 510 510 510 510 510 510 509 510 0 0 0 0 0 0 0 0 0 0 0 0 0 0 0 0 0 0 0 0 0 0 0 0 0 0 0 0 0 0 0 0 0 0 0 0 0 0 0 0 0 0 0 0 0 0 0 0 0 0 0 0 0 0 0 0 0 0 0 0 0 0 0 0 0 0 0 0 0 0 0 0 0 0 0 0 0 0 0 0 0 0 0 0 0 0 0 0 0 0 0 0 0 0 0 0 0 0 0 0 0 0 0 0 0 0 0 0 0 0 0 0 0 0 0 0 0 0 0 0 0 0 0 0 0 0 0 0 0 0 0 717 716 715 714 713 712 710 710 710 710 709 709 709 709 709 709 708 708 707 707 706 706 706 706 706 706 706 706 706 706 706 0 0 0 0 0 0 0 0 0 0 0 0 0 0 0 0 0 0 0 0 0 0 0 0 0 0 0 0 0 0 0 0 0 0 0 0 0 0 0 0 0 0 0 0 742 743 743 743 742 742 742 742 742 742 742 742 742 742 742 0 0 0 0 0
0 0 0 0 0 0 0 0 0 0 0 0 0 0 0 0 466 467 467 0 467 468 468 468 468 468 468 468 468 469 469 469 469 469 470 470 470 470 470 471 471 471 471 471 471 472 472 472 472 473 473 473 474 474 474 474 474 474 475 475 475 475 475 475 476 476 476 477 477 477 477 477 477 477 477 478 478 478 478 478 478 479 479 479 479 479 479 479 479 479 479 479 479 479 479 480 480 480 480 480 481 481 481 482 483 483 483 483 483 483 483 484 484 484 484 484 484 484 485 485 485 485 485 485 486 486 486 487 487 487 487 488 488 487 488 487 487 487 487 487 487 488 488 488 489 489 489 490 490 490 490 490 491 491 492 492 492 492 492 492 493 493 492 492 492 492 492 492 492 492 492 493 493 493 493 493 494 494 494 494 495 495 495 495 495 496 496 496 497 497 497 497 498 498 498 498 498 499 499 499 500 500 500 501 501 501 502 502 502 502 502 502 502 502 502 502 502 502 502 503 503 503 503 504 504 504 505 505 506 506 506 506 506 506 507 507 507 508 508 508 509 509 509 510 510 510 510 510 510 509 509 509 509 510 510 511 511 511 512 0 0 0 0 0 0 0 0 0 0 0 0 0 0 0 0 0 0 0 0 0 0 0 0 0 0 0 0 0 0 0 0 0 0 0 0 0 0 0 0 0 0 0 0 0 0 0 0 0 0 0 0 0 0 0 0 0 0 0 0 0 0 0 0 0 0 0 0 0 0 0 0 0 0 0 0 0 0 0 0 0 0 0 0 0 0 0 0 0 0 0 0 0 0 0 0 0 0 0 0 0 0 0 0 0 0 0 0 0 0 0 0 0 0 0 0 0 0 0 0 0 0 0 0 0 0 717 716 715 714 714 712 711 711 710 710 710 710 710 710 710 710 710 709 709 708 708 708 707 707 707 707 707 707 708 708 0 0 0 0 0 0 0 0 0 0 0 0 0 0 0 0 0 0 0 0 0 0 0 0 0 0 0 0 0 0 0 0 0 0 0 0 0 0 0 0 0 0 0 0 0 0 742 742 742 742 742 742 741 741 742 741 742 742 742 742 0 0 0 0 0
0 0 0 0 0 0 0 0 0 0 0 0 0 466 466 466 466 467 466 467 0 467 468 468 467 468 468 468 468 468 469 469 469 469 469 469 470 470 470 470 470 471 471 471 471 471 471 472 472 472 472 473 473 473 474 474 474 474 474 474 475 475 475 475 475 476 476 476 477 477 477 477 477 477 477 478 478 478 478 478 479 479 478 479 478 479 479 479 479 479 479 479 479 479 479 479 479 480 480 480 481 481 481 482 482 482 483 483 483 483 483 483 483 483 483 484 484 484 484 484 484 484 484 485 485 485 486 486 486 487 487 487 488 488 487 487 487 487 487 487 487 487 488 488 488 489 489 489 490 490 490 490 490 491 491 492 492 492 492 492 492 492 492 492 492 492 492 492 492 492 492 492 492 493 493 493 493 493 494 494 494 494 495 495 495 495 496 496 496 497 497 497 497 497 498 498 498 498 498 499 499 500 500 500 500 501 501 501 501 501 501 501 501 501 502 502 502 502 502 502 502 502 503 503 504 504 504 504 505 505 505 506 506 506 506 506 507 507 508 508 508 509 509 509 509 509 509 509 509 509 509 509 509 509 510 510 511 511 511 511 512 513 513 0 0 0 0 0 0 0 0 0 0 0 0 0 0 0 0 0 0 0 0 0 0 0 0 0 0 0 0 0 0 0 0 0 0 0 0 0 0 0 0 0 0 0 0 0 0 0 0 0 0 0 0 0 0 0 0 0 0 0 0 0 0 0 0 0 0 0 0 0 0 0 0 0 0 0 0 0 0 0 0 0 0 0 0 0 0 0 0 0 0 0 0 0 0 0 0 0 0 0 0 0 0 0 0 0 0 0 0 0 0 0 0 0 0 0 0 0 0 0 0 0 0 0 716 715 714 714 713 712 712 711 711 711 711 711 711 711 710 710 710 710 710 709 709 709 709 709 709 709 709 710 710 0 0 0 0 0 0 0 0 0 0 0 0 0 0 0 0 0 0 0 0 0 0 0 0 0 0 0 0 0 0 0 0 0 0 0 0 0 0 0 0 0 0 0 0 0 0 0 742 742 742 741 741 741 741 741 741 741 741 741 0 0 0 0 0 0
0 0 0 0 0 0 463 464 463 464 465 0 0 0 465 466 0 466 466 466 0 467 467 467 467 467 468 468 468 468 468 469 469 469 469 469 469 470 470 470 470 470 470 470 470 471 471 471 471 472 472 472 472 473 473 473 473 474 474 474 474 474 475 475 475 475 476 476 476 477 477 477 477 477 477 477 477 477 477 477 478 478 479 479 478 478 478 478 479 479 479 479 479 479 479 479 479 479 480 480 480 481 481 481 482 482 482 482 483 483 483 483 483 483 483 483 483 483 484 484 484 484 484 484 485 485 485 486 486 486 487 487 487 487 487 487 487 487 487 487 487 487 487 488 488 489 489 489 489 490 490 490 490 490 491 491 492 492 492 492 492 492 492 492 492 492 492 492 492 492 492 492 492 492 492 493 493 493 493 493 494 494 494 494 495 495 495 496 496 496 497 497 497 497 497 497 498 498 498 498 499 499 500 500 500 500 500 501 0 501 501 501 501 501 501 501 501 502 502 502 502 502 502 503 503 504 504 504 504 504 505 505 505 505 506 506 506 507 507 508 508 508 508 509 509 509 509 509 509 508 508 509 508 509 509 509 510 510 511 511 511 512 512 513 513 513 513 513 514 0 0 0 0 0 0 0 0 0 0 0 0 0 0 0 0 0 0 0 0 0 0 0 0 0 0 0 0 0 0 0 0 0 0 0 0 0 0 0 0 0 0 0 0 0 0 0 0 0 0 0 0 0 0 0 0 0 0 0 0 0 0 0 0 0 0 0 0 0 0 0 0 0 0 0 0 0 0 0 0 0 0 0 0 0 0 0 0 0 0 0 0 0 0 0 0 0 0 0 0 0 0 0 0 0 0 0 0 0 0 0 0 0 0 0 0 0 0 715 714 714 713 713 713 712 712 712 712 712 712 712 712 712 711 711 710 710 710 710 710 710 710 710 710 711 0 0 0 0 0 0 0 0 0 0 0 0 0 0 0 0 0 0 0 0 0 0 0 0 0 0 0 0 0 0 0 0 0 0 0 0 0 0 0 0 0 0 0 0 0 0 0 0 0 742 741 741 741 740 740 740 740 740 740 741 0 0 0 0 0 0
0 0 0 0 0 463 463 463 463 464 464 465 465 465 465 466 465 466 466 466 466 467 467 467 467 467 467 467 468 468 468 468 468 469 469 469 469 469 469 469 470 470 470 470 470 470 471 471 471 471 472 472 472 472 472 473 473 473 473 473 474 474 474 474 475 475 476 476 476 477 477 477 477 477 477 477 477 477 478 478 478 478 478 478 478 478 478 478 478 478 478 478 479 479 479 479 479 479 479 480 480 480 481 481 481 482 482 482 482 482 482 483 483 482 483 483 483 483 483 483 483 484 484 484 484 485 485 485 486 486 486 487 487 487 487 487 487 486 486 486 487 487 487 487 488 488 489 489 489 489 490 490 490 490 491 491 491 492 492 492 492 492 492 492 492 491 491 491 491 491 492 492 492 492 492 492 492 493 493 493 493 493 494 494 494 495 495 495 496 496 496 497 497 497 497 497 497 497 498 498 498 498 499 499 500 500 500 500 500 500 500 500 500 501 501 501 501 501 501 502 502 502 502 502 502 503 503 504 504 504 504 504 505 505 505 506 506 506 507 507 508 508 508 508 508 508 508 508 508 508 508 508 508 508 508 509 509 509 510 510 511 511 511 512 512 512 513 513 513 513 513 513 514 514 514 514 0 0 0 0 0 0 0 0 0 0 0 0 0 0 0 0 0 0 0 0 0 0 0 0 0 0 0 0 0 0 0 0 0 0 0 0 0 0 0 0 0 0 0 0 0 0 0 0 0 0 0 0 0 0 0 0 0 0 0 0 0 0 0 0 0 0 0 0 0 0 0 0 0 0 0 0 0 0 0 0 0 0 0 0 0 0 0 0 0 0 0 0 0 0 0 0 0 0 0 0 0 0 0 0 0 0 0 0 0 0 0 0 0 0 0 0 0 0 0 713 714 714 714 713 713 713 713 712 712 712 711 711 711 711 711 712 712 713 0 0 0 0 0 0 0 0 0 0 0 0 0 0 0 0 0 0 0 0 0 0 0 0 0 0 0 0 0 0 0 0 0 0 0 0 0 0 0 0 0 0 0 0 0 0 0 0 0 741 741 741 740 740 740 739 739 739 740 0 0 0 0 0 0 0
0 0 0 0 463 463 463 463 463 463 463 464 465 465 465 465 465 466 466 466 466 467 467 467 466 467 467 467 467 468 468 468 468 469 469 469 469 469 469 469 469 469 469 470 470 470 470 471 471 471 471 472 472 472 472 472 472 472 473 473 473 474 474 474 475 475 475 476 476 476 477 477 477 476 477 477 477 477 477 477 478 478 477 478 477 478 478 478 478 478 478 478 478 478 478 479 479 479 479 479 480 480 480 481 481 481 481 482 482 482 482 482 482 482 482 482 482 482 483 483 483 483 483 484 484 484 485 485 485 486 486 486 487 487 486 486 486 486 486 486 486 487 487 487 487 488 488 489 489 489 489 490 490 490 491 491 491 491 492 492 492 492 491 492 491 491 491 491 491 491 491 491 491 492 492 492 492 492 492 493 493 493 493 494 494 495 495 495 495 496 496 496 496 497 497 497 497 497 497 497 498 498 498 499 499 499 500 500 500 500 500 500 500 500 500 500 500 501 501 501 501 502 502 502 502 502 503 503 504 504 504 504 504 504 504 505 505 506 506 507 507 508 508 508 508 508 508 508 508 508 508 508 508 508 508 508 508 509 509 510 510 510 511 511 511 512 512 512 513 513 513 513 513 514 514 514 514 515 515 515 515 515 515 514 514 514 515 515 516 516 516 517 517 0 0 0 0 0 0 0 0 0 0 0 0 0 0 0 0 0 0 0 0 0 0 0 0 0 0 0 0 0 0 0 0 0 0 0 0 0 0 0 0 0 0 0 0 0 0 0 0 0 0 0 0 0 0 0 0 0 0 0 0 0 0 0 0 0 0 0 0 0 0 0 0 0 0 0 0 0 0 0 0 0 0 0 0 0 0 0 0 0 0 0 0 0 0 0 0 0 0 0 0 0 0 0 0 0 0 714 714 714 713 713 713 713 713 713 713 713 713 713 0 0 0 0 0 0 0 0 0 0 0 0 0 0 0 0 0 0 0 0 0 0 0 0 0 0 0 0 0 0 0 0 0 0 0 0 0 0 0 0 0 0 0 0 0 0 0 0 0 0 0 0 741 740 740 739 739 738 738 738 738 0 0 0 0 0 0 0
0 0 0 0 463 463 463 463 463 463 463 464 464 464 464 465 465 465 466 466 466 466 466 466 466 467 467 467 467 467 468 468 468 468 469 469 469 469 469 469 469 469 469 469 470 470 470 470 471 471 471 471 472 472 472 472 472 472 472 472 473 473 474 474 474 475 475 475 476 476 476 476 477 476 476 476 477 0 0 0 477 477 477 477 477 478 477 477 478 478 478 478 478 478 478 478 479 479 479 479 479 480 480 481 481 481 481 481 481 481 482 482 481 481 481 481 482 482 482 482 483 483 483 483 483 484 484 485 485 485 486 486 486 486 486 486 486 486 486 486 486 486 487 487 487 488 488 489 489 489 489 489 490 490 490 490 491 491 491 491 491 491 491 491 491 491 491 491 491 491 491 491 491 491 492 492 492 492 492 492 493 493 493 493 494 494 495 495 495 495 496 496 496 496 496 496 496 497 497 497 497 498 498 498 499 499 499 500 500 500 500 500 500 500 500 500 500 500 500 501 501 501 501 502 502 502 502 503 503 503 503 503 503 504 504 504 505 505 506 506 507 507 508 508 508 508 508 508 507 507 508 508 507 508 508 508 508 508 508 509 509 510 510 511 511 511 511 512 512 512 513 513 513 513 514 514 514 514 515 515 515 514 514 514 514 514 514 515 515 516 516 516 517 516 517 517 517 517 0 0 0 0 0 0 0 0 0 0 0 0 0 0 0 0 0 0 0 0 0 0 0 0 0 0 0 0 0 0 0 0 0 0 0 0 0 0 0 0 0 0 0 0 0 0 0 0 0 0 0 0 0 0 0 0 0 0 0 0 0 0 0 0 0 0 0 0 0 0 0 0 0 0 0 0 0 0 0 0 0 0 0 0 0 0 0 0 0 0 0 0 0 0 0 0 0 0 0 0 0 0 0 0 0 0 714 714 714 714 714 713 0 0 0 0 0 0 0 0 0 0 0 0 0 0 0 0 0 0 0 0 0 0 0 0 0 0 0 0 0 0 0 0 0 0 0 0 0 0 0 0 0 0 0 0 0 0 0 0 0 0 0 0 0 0 740 740 740 739 738 738 738 738 0 0 0 0 0 0 0 0
0 0 0 0 463 463 463 463 463 463 464 464 464 464 464 465 465 465 465 465 465 466 466 466 466 466 467 467 467 467 468 468 468 468 468 468 469 469 469 469 469 469 469 469 469 469 470 470 470 471 471 471 471 472 472 472 472 472 472 472 472 473 473 474 474 474 475 475 475 476 476 476 476 476 476 476 476 0 0 0 0 477 477 477 477 478 477 477 477 477 477 477 478 478 478 478 478 478 479 479 479 480 480 480 481 481 481 481 481 481 481 481 481 481 481 481 481 481 481 482 482 482 483 483 483 483 484 484 484 485 485 486 486 486 486 486 486 486 486 486 486 486 487 487 487 487 488 488 489 489 489 489 490 490 490 490 490 490 491 491 491 491 491 491 491 491 490 490 490 491 491 491 491 491 491 492 492 492 492 492 492 493 493 493 493 494 494 495 495 495 495 496 496 496 496 496 496 496 497 497 497 497 498 498 498 499 499 499 499 500 500 500 500 500 500 500 500 500 500 500 500 501 501 501 502 502 502 502 503 503 503 503 503 503 504 504 504 505 505 506 506 507 507 507 507 507 507 507 507 507 507 507 507 507 508 508 508 508 508 508 509 509 509 510 510 511 511 511 511 512 512 512 513 513 513 513 514 514 514 514 514 514 514 514 514 514 514 514 515 515 516 516 516 516 516 516 517 517 517 517 518 518 518 519 520 520 521 0 0 0 0 0 0 0 0 0 0 0 0 0 0 0 0 0 0 0 0 0 0 0 0 0 0 0 0 0 0 0 0 0 0 0 0 0 0 0 0 0 0 0 0 0 0 0 0 0 0 0 0 0 0 0 0 0 0 0 0 0 0 0 0 0 0 0 0 0 0 0 0 0 0 0 0 0 0 0 0 0 0 0 0 0 0 0 0 0 0 0 0 0 0 0 0 0 0 0 0 0 0 0 0 0 0 0 0 0 0 0 0 0 0 0 0 0 0 0 0 0 0 0 0 0 0 0 0 0 0 0 0 0 0 0 0 0 0 0 0 0 0 0 0 0 0 0 0 0 0 0 0 0 0 0 0 0 740 740 739 738 738 738 738 737 0 0 0 0 0 0 0 0
0 0 0 0 463 463 463 463 463 463 463 463 464 464 464 464 465 465 465 465 465 465 466 466 466 466 466 467 467 467 467 468 468 468 468 468 468 468 468 468 468 468 469 469 469 469 469 470 470 470 470 471 471 471 471 471 471 472 472 472 472 472 473 473 474 474 474 475 475 475 476 476 476 476 476 476 476 476 476 0 0 0 0 477 477 477 477 477 477 477 477 477 477 477 478 478 478 478 479 479 479 479 480 480 480 480 481 481 481 481 481 481 481 481 481 481 481 481 481 481 482 482 482 483 483 483 484 484 484 484 484 485 485 485 485 485 485 485 485 486 486 486 486 487 487 487 488 488 489 489 489 489 489 490 489 490 490 0 491 491 491 491 491 491 491 491 490 490 490 490 490 490 490 491 491 491 492 492 492 492 492 492 493 493 493 493 494 494 495 495 495 495 495 495 495 495 496 496 496 496 497 497 497 498 498 498 498 499 499 499 499 499 499 499 499 499 499 499 500 500 500 500 501 501 501 502 502 502 502 502 502 502 502 503 503 504 504 504 505 506 506 506 506 506 507 507 507 506 506 507 507 507 507 507 507 507 508 508 508 508 508 508 509 509 510 510 511 511 511 511 512 512 512 513 513 513 513 514 514 514 514 514 514 514 514 514 514 514 515 515 515 516 516 516 516 516 516 517 517 517 518 518 518 519 519 520 520 520 520 521 520 521 0 0 0 0 0 0 0 0 0 0 0 0 0 0 0 0 0 0 0 0 0 0 0 0 0 0 0 0 0 0 0 0 0 0 0 0 0 0 0 0 0 0 0 0 0 0 0 0 0 0 0 0 0 0 0 0 0 0 0 0 0 0 0 0 0 0 0 0 0 0 0 0 0 0 0 0 0 0 0 0 0 0 0 0 0 0 0 0 0 0 0 0 0 0 0 0 0 0 0 0 0 0 0 0 0 0 0 0 0 0 0 0 0 0 0 0 0 0 0 0 0 0 0 0 0 0 0 0 0 0 0 0 0 0 0 0 0 0 0 0 0 0 0 0 0 0 0 0 0 0 0 0 0 740 739 738 738 738 736 0 0 0 0 0 0 0 0 0
0 0 0 0 462 462 463 463 463 463 463 463 463 464 464 464 464 465 465 465 465 465 465 466 466 466 466 466 467 467 467 468 468 468 468 468 468 468 468 468 468 468 468 469 469 469 469 469 470 470 470 470 471 471 471 471 471 471 471 472 472 472 472 473 473 474 474 474 475 475 475 475 476 475 475 475 475 475 476 0 0 0 476 476 476 477 477 477 477 477 477 477 477 477 477 477 478 478 478 479 479 479 480 480 480 480 480 480 480 480 480 481 480 480 480 480 481 481 481 481 481 482 482 482 483 483 483 483 484 484 484 484 484 484 485 485 485 485 485 485 486 486 486 486 487 487 487 488 488 489 489 489 489 489 489 489 490 0 0 0 490 490 491 490 490 490 490 490 490 490 490 490 490 490 491 491 491 492 492 492 492 492 492 493 493 493 494 494 494 495 495 495 495 495 495 495 495 495 496 496 496 497 497 497 497 498 498 498 498 498 498 499 499 499 499 499 499 499 499 499 500 500 500 501 501 501 502 502 502 502 502 502 502 502 503 503 504 504 504 505 506 506 506 506 506 506 506 506 506 506 506 506 506 506 507 507 507 507 507 507 508 508 508 509 509 510 510 510 511 511 511 511 512 512 512 513 513 513 513 513 513 513 513 513 513 513 514 514 514 515 515 515 516 516 516 516 516 516 517 517 517 518 518 518 519 519 519 520 520 520 520 520 520 520 520 521 521 0 0 0 0 0 0 0 0 0 0 0 0 0 0 0 0 0 0 0 0 0 0 0 0 0 0 0 0 0 0 0 0 0 0 0 0 0 0 0 0 0 0 0 0 0 0 0 0 0 0 0 0 0 0 0 0 0 0 0 0 0 0 0 0 0 0 0 0 0 0 0 0 0 0 0 0 0 0 0 0 0 0 0 0 0 0 0 0 0 0 0 0 0 0 0 0 0 0 0 0 0 0 0 0 0 0 0 0 0 0 0 0 0 0 0 0 0 0 0 0 0 0 0 0 0 0 0 0 0 0 0 0 0 0 0 0 0 0 0 0 0 0 0 0 0 0 0 0 739 738 738 737 737 0 0 0 0 0 0 0 0 0 0
0 0 0 0 462 462 462 462 462 463 463 463 463 463 463 464 464 464 464 465 465 465 465 465 466 466 466 466 467 467 467 467 468 468 468 468 468 468 468 468 468 468 468 468 468 469 469 469 469 470 470 470 470 471 471 471 471 471 471 471 471 472 472 472 473 473 474 474 474 475 475 475 475 475 475 475 475 475 475 475 476 476 476 476 476 477 476 476 477 477 477 477 477 477 477 477 477 478 478 478 479 479 479 480 480 480 480 480 480 480 480 480 480 480 480 480 480 481 481 481 481 482 482 482 482 483 483 483 483 483 484 484 484 484 484 484 484 485 485 485 485 486 486 486 487 487 487 487 488 488 489 489 489 489 489 489 489 0 0 490 490 490 490 490 490 490 490 490 490 490 490 490 490 490 490 491 491 491 492 492 492 492 492 492 493 493 493 494 494 494 495 495 495 495 495 495 495 495 495 496 496 496 497 497 497 497 498 498 498 498 498 498 498 498 498 498 498 498 499 499 499 500 500 500 500 501 501 501 502 502 502 502 502 502 502 502 503 504 504 504 505 505 506 506 506 506 506 506 506 506 506 506 506 506 506 506 507 507 507 507 507 508 508 508 508 509 509 510 510 511 511 511 511 511 512 512 513 513 513 513 513 513 513 513 513 513 513 514 514 514 515 515 515 516 516 516 516 516 516 517 517 517 518 518 518 519 519 519 519 519 520 520 520 520 520 520 521 521 521 522 522 0 0 0 0 0 0 0 0 0 0 0 0 0 0 0 0 0 0 0 0 0 0 0 0 0 0 0 0 0 0 0 0 0 0 0 0 0 0 0 0 0 0 0 0 0 0 0 0 0 0 0 0 0 0 0 0 0 0 0 0 0 0 0 0 0 0 0 0 0 0 0 0 0 0 0 0 0 0 0 0 0 0 0 0 0 0 0 0 0 0 0 0 0 0 0 0 0 0 0 0 0 0 0 0 0 0 0 0 0 0 0 0 0 0 0 0 0 0 0 0 0 0 0 0 0 0 0 0 0 0 0 0 0 0 0 0 0 0 0 0 0 0 0 0 739 738 738 736 735 0 0 0 0 0 0 0 0 0 0
0 0 0 0 462 462 462 462 462 462 463 463 463 463 463 463 463 464 464 464 464 465 465 465 465 465 466 466 466 467 467 467 467 468 468 468 468 468 468 468 468 468 468 468 468 468 469 469 469 469 470 470 470 470 471 471 471 471 471 471 471 471 472 472 472 472 473 474 474 474 474 475 475 475 474 475 474 474 475 475 475 476 476 476 476 476 476 476 476 476 477 477 477 477 477 477 477 477 478 478 478 479 479 479 479 480 480 480 480 480 480 480 480 480 480 480 480 480 481 481 481 481 481 482 482 482 483 483 483 483 483 483 483 484 484 484 484 484 484 485 485 486 486 486 486 487 487 487 487 488 488 488 489 489 489 489 489 489 0 0 490 490 490 490 490 490 490 490 489 490 490 490 490 490 490 490 491 491 491 492 492 492 492 492 493 493 493 494 494 494 494 495 495 495 495 495 495 495 495 495 495 496 496 497 497 497 497 498 498 498 498 498 498 498 498 498 498 498 498 498 499 499 500 500 500 500 501 501 501 501 501 501 502 502 502 502 502 503 504 504 504 505 505 505 505 506 505 505 506 506 506 506 506 506 506 506 506 506 507 507 507 507 508 508 508 508 509 509 510 510 510 510 511 511 511 511 512 512 513 513 513 513 513 513 513 513 513 513 514 514 514 515 515 515 516 516 516 516 516 516 517 517 518 518 518 518 519 519 519 519 519 519 519 520 520 520 520 521 521 521 522 522 523 523 0 0 0 0 0 0 0 0 0 0 0 0 0 0 0 0 0 0 0 0 0 0 0 0 0 0 0 0 0 0 0 0 0 0 0 0 0 0 0 0 0 0 0 0 0 0 0 0 0 0 0 0 0 0 0 0 0 0 0 0 0 0 0 0 0 0 0 0 0 0 0 0 0 0 0 0 0 0 0 0 0 0 0 0 0 0 0 0 0 0 0 0 0 0 0 0 0 0 0 0 0 0 0 0 0 0 0 0 0 0 0 0 0 0 0 0 0 0 0 0 0 0 0 0 0 0 0 0 0 0 0 0 0 0 0 0 0 0 0 0 0 738 738 736 736 734 0 0 0 0 0 0 0 0 0 0
0 0 0 0 462 462 462 462 462 462 462 463 463 463 463 463 463 463 464 464 464 464 464 465 465 465 465 466 466 466 467 467 467 467 467 467 467 467 467 467 467 467 467 468 468 468 468 469 469 469 469 470 470 470 470 470 470 471 471 471 471 471 471 471 472 472 472 473 473 474 474 474 474 474 474 474 474 474 474 474 475 475 475 475 476 476 476 476 476 476 476 476 477 477 477 477 477 477 478 478 478 479 479 479 479 479 479 479 479 479 479 479 480 479 480 480 480 480 480 481 481 481 481 482 482 482 482 482 482 483 483 483 483 483 484 484 484 484 484 484 485 485 486 486 486 486 487 487 487 487 488 488 488 489 488 488 489 489 0 0 490 490 490 490 490 490 490 489 489 489 489 490 490 490 490 490 491 491 491 491 492 492 492 492 492 493 493 493 494 494 494 495 495 495 495 495 495 495 495 495 495 495 496 496 497 497 497 497 497 498 498 498 498 497 497 497 498 498 498 498 498 499 499 500 500 500 500 501 501 501 501 501 501 501 502 502 502 503 503 504 504 504 504 505 505 505 505 505 505 505 506 506 506 506 506 506 506 506 506 506 506 507 507 507 508 508 508 509 509 509 509 510 510 511 511 511 511 512 512 512 512 512 513 513 513 513 513 513 513 514 514 514 515 515 515 516 516 516 516 516 516 517 517 518 518 518 518 518 518 519 519 519 519 519 520 520 520 520 521 521 521 522 522 523 523 524 524 525 525 525 526 526 526 0 0 0 0 0 0 0 0 0 0 0 0 0 0 0 0 0 0 0 0 0 0 0 0 0 0 0 0 0 0 0 0 0 0 0 0 0 0 0 0 0 0 0 0 0 0 0 0 0 0 0 0 0 0 0 0 0 0 0 0 0 0 0 0 0 0 0 0 0 0 0 0 0 0 0 0 0 0 0 0 0 0 0 0 0 0 0 0 0 0 0 0 0 0 0 0 0 0 0 0 0 0 0 0 0 0 0 0 0 0 0 0 0 0 0 0 0 0 0 0 0 0 0 0 0 0 0 0 0 0 0 0 0 737 736 734 0 0 0 0 0 0 0 0 0 0 0
0 0 0 0 461 461 462 462 462 462 462 462 462 463 463 463 463 463 463 463 464 464 464 464 465 465 465 465 466 466 466 467 467 467 467 467 467 467 467 467 467 467 467 467 468 468 468 468 469 469 469 470 470 470 470 470 470 470 470 470 471 471 471 471 471 472 472 472 473 473 473 473 473 473 474 474 473 474 474 474 475 475 476 476 475 476 476 476 476 476 476 476 476 477 477 477 477 477 477 477 477 478 478 479 479 479 479 479 479 479 479 479 479 479 479 480 480 480 480 481 481 481 481 481 482 482 482 482 482 482 482 483 483 483 483 483 483 484 484 484 485 485 485 486 486 486 486 487 487 487 487 487 488 487 488 488 488 488 0 0 489 489 490 489 490 489 489 489 489 489 489 489 490 490 490 490 490 491 491 491 491 492 492 492 492 493 493 493 494 494 494 494 495 495 495 495 495 495 495 495 495 495 495 496 496 497 497 497 497 497 497 497 497 497 497 497 497 497 497 497 498 498 498 499 500 500 500 500 500 500 501 501 501 501 501 502 502 502 503 503 504 504 504 504 504 504 504 505 505 505 505 506 506 506 506 506 506 506 506 506 506 506 507 507 507 508 508 508 508 509 509 509 510 510 510 511 511 511 511 512 512 512 512 512 512 512 513 513 513 513 514 514 515 515 515 515 516 516 516 516 516 517 517 517 518 518 518 518 518 518 518 519 519 519 519 520 520 520 521 521 521 521 522 522 523 523 523 524 524 524 524 524 525 525 525 526 526 526 526 526 0 0 0 0 0 0 0 0 0 0 0 0 0 0 0 0 0 0 0 0 0 0 0 0 0 0 0 0 0 0 0 0 0 0 0 0 0 0 0 0 0 0 0 0 0 0 0 0 0 0 0 0 0 0 0 0 0 0 0 0 0 0 0 0 0 0 0 0 0 0 0 0 0 0 0 0 0 0 0 0 0 0 0 0 0 0 0 0 0 0 0 0 0 0 0 0 0 0 0 0 0 0 0 0 0 0 0 0 0 0 0 0 0 0 0 0 0 0 0 0 0 0 0 0 0 0 736 735 733 0 0 0 0 0 0 0 0 0 0 0
0 0 0 0 461 461 461 461 461 462 462 462 462 462 462 463 463 463 463 463 463 463 463 464 464 465 465 465 466 466 466 466 466 467 467 467 466 466 467 467 467 467 467 467 467 468 468 468 468 469 469 469 470 470 470 470 470 470 470 470 470 470 470 471 471 471 471 472 472 472 472 472 472 473 473 473 473 473 474 474 474 475 475 475 475 476 476 476 476 476 476 476 476 476 476 477 477 477 477 477 477 478 478 478 479 479 479 479 479 479 479 479 479 479 479 479 480 480 480 480 481 481 481 481 481 481 481 481 481 482 482 482 482 483 483 483 483 483 484 484 484 484 485 485 485 486 486 486 487 487 487 487 487 488 488 488 488 488 488 0 489 489 489 489 489 489 489 489 489 489 489 489 489 490 490 490 490 490 491 491 491 491 492 492 492 492 493 493 493 494 494 494 494 495 495 494 495 495 495 495 495 495 495 495 496 496 496 497 497 497 497 497 497 497 497 497 497 497 497 497 497 498 498 499 499 500 500 500 500 500 500 500 500 501 501 501 502 502 502 503 503 503 504 504 504 504 504 504 504 505 505 505 505 506 506 506 506 506 506 506 506 506 506 507 507 507 508 508 508 508 508 509 509 510 510 510 511 511 511 511 511 511 511 512 512 512 512 513 513 513 514 514 514 515 515 515 515 516 516 516 516 516 517 517 517 518 518 518 518 518 518 518 519 519 519 519 519 520 520 520 520 521 521 521 522 523 523 523 524 524 524 524 524 525 525 525 526 526 526 526 526 527 527 0 0 0 0 0 0 0 0 0 0 0 0 0 0 0 0 0 0 0 0 0 0 0 0 0 0 0 0 0 0 0 0 0 0 0 0 0 0 0 0 0 0 0 0 0 0 0 0 0 0 0 0 0 0 0 0 0 0 0 0 0 0 0 0 0 0 0 0 0 0 0 0 0 0 0 0 0 0 0 0 0 0 0 0 0 0 0 0 0 0 0 0 0 0 0 0 0 0 0 0 0 0 0 0 0 0 0 0 0 0 0 0 0 0 0 0 0 0 0 0 0 0 0 0 734 0 0 0 0 0 0 0 0 0 0 0 0
0 0 0 0 461 461 461 461 461 461 461 462 462 462 462 462 462 462 462 463 463 463 463 463 464 464 465 465 465 466 466 466 466 466 466 466 466 466 466 466 466 467 467 467 467 467 468 468 468 468 469 469 469 469 470 470 470 470 470 470 470 470 470 470 470 471 471 471 471 472 472 472 472 472 472 472 472 473 473 474 474 474 475 475 475 475 475 475 475 476 476 476 476 476 476 476 477 477 477 477 478 478 478 478 479 478 479 479 479 479 479 479 479 479 479 479 479 479 480 480 480 480 481 481 481 481 481 481 481 481 481 482 482 482 482 483 483 483 483 484 484 484 485 485 485 486 486 486 486 487 487 487 487 487 487 487 487 487 487 488 0 488 489 489 489 489 489 489 489 489 489 489 489 489 490 490 490 490 490 491 491 491 491 492 492 492 493 493 493 494 494 494 494 494 494 494 494 494 494 494 495 495 495 495 496 496 496 496 496 497 497 497 496 496 496 496 496 496 496 497 497 497 498 498 499 499 500 500 500 500 500 500 500 500 501 501 501 502 502 502 503 503 503 504 504 504 504 504 504 504 504 505 505 505 505 506 506 506 506 506 506 506 506 506 507 507 507 507 508 508 508 508 509 509 510 510 510 511 511 511 511 511 511 511 511 511 512 512 513 513 513 514 514 514 514 515 515 515 515 516 516 516 516 517 517 517 518 518 518 518 518 518 518 518 519 519 519 519 519 520 520 520 521 521 521 522 522 523 523 524 524 524 524 524 524 525 525 525 526 526 526 527 527 527 527 528 528 529 530 0 0 0 0 0 0 0 0 0 0 0 0 0 0 0 0 0 0 0 0 0 0 0 0 0 0 0 0 0 0 0 0 0 0 0 0 0 0 0 0 0 0 0 0 0 0 0 0 0 0 0 0 0 0 0 0 0 0 0 0 0 0 0 0 0 0 0 0 0 0 0 0 0 0 0 0 0 0 0 0 0 0 0 0 0 0 0 0 0 0 0 0 0 0 0 0 0 0 0 0 0 0 0 0 0 0 0 0 0 0 0 0 0 0 0 0 0 0 0 0 0 0 0 0 0 0 0 0 0 0 0
0 0 0 0 460 460 461 461 461 461 461 461 461 462 462 462 462 462 462 462 462 462 463 463 463 464 464 465 465 466 466 466 466 466 0 466 466 466 466 466 466 466 466 467 467 467 467 468 468 468 469 469 469 469 469 469 469 469 469 469 470 470 470 470 470 470 470 471 471 471 471 471 471 472 472 472 472 472 472 473 474 474 474 475 475 475 475 475 475 475 475 476 476 476 476 476 476 477 476 477 477 0 478 477 478 478 478 0 0 478 479 479 478 478 479 479 479 479 479 480 480 480 480 481 481 481 481 481 481 481 481 481 482 482 482 482 483 483 483 483 484 484 484 485 485 485 486 486 486 486 487 487 487 487 487 487 487 487 487 487 488 488 488 489 489 489 489 488 488 488 489 489 489 489 489 490 490 490 490 490 491 491 491 492 492 492 492 493 493 493 494 494 494 494 494 494 494 494 494 494 494 494 495 495 495 495 496 496 496 496 496 496 496 496 496 496 496 496 496 496 497 497 498 498 498 499 499 500 500 500 500 500 500 500 500 500 501 501 502 502 502 503 503 503 504 504 504 504 504 504 504 504 505 505 505 505 505 505 506 506 506 506 506 506 506 507 507 507 507 508 508 508 509 509 509 509 510 510 510 511 511 511 511 511 511 511 511 512 512 513 513 513 514 514 514 514 515 515 515 516 516 516 516 516 517 517 517 517 517 518 518 518 518 518 518 519 519 519 519 519 519 520 520 521 521 521 522 522 522 523 523 524 524 524 524 524 524 525 525 526 526 526 527 527 527 528 528 529 529 530 530 531 531 532 532 532 532 532 0 0 0 0 0 0 0 0 0 0 0 0 0 0 0 0 0 0 0 0 0 0 0 0 0 0 0 0 0 0 0 0 0 0 0 0 0 0 0 0 0 0 0 0 0 0 0 0 0 0 0 0 0 0 0 0 0 0 0 0 0 0 0 0 0 0 0 0 0 0 0 0 0 0 0 0 0 0 0 0 0 0 0 0 0 0 0 0 0 0 0 0 0 0 0 0 0 0 0 0 0 0 0 0 0 0 0 0 0 0 0 0 0 0 0 0 0 0 0 0 0 0
0 0 0 0 460 460 460 460 460 460 461 461 461 461 461 461 461 462 462 462 462 462 462 462 463 463 464 464 465 465 465 466 466 0 466 466 466 465 466 466 466 466 466 466 467 467 467 467 468 468 468 468 469 469 469 469 469 469 469 469 469 469 469 469 469 470 470 470 470 470 470 471 471 471 471 471 471 472 472 473 473 474 474 474 474 475 475 475 475 475 475 475 475 476 476 476 476 476 476 477 477 0 477 477 477 478 477 478 478 0 0 478 478 479 478 479 479 479 479 480 480 480 480 480 480 480 481 481 481 481 481 481 481 482 482 482 482 483 483 483 483 484 484 484 484 485 485 486 486 486 486 486 487 487 487 487 487 487 487 487 487 488 488 488 488 488 488 488 488 488 488 488 489 489 489 489 490 490 490 490 490 491 491 491 492 492 492 493 493 493 493 494 494 494 494 494 494 494 494 494 494 494 495 495 495 495 495 495 495 495 495 495 495 495 495 495 495 495 495 496 496 497 497 498 498 499 499 499 500 500 500 500 500 500 500 500 501 501 502 502 502 502 503 503 503 503 503 503 504 504 504 504 504 504 505 505 505 505 505 505 505 506 506 506 506 506 507 507 507 508 508 508 508 508 509 509 509 510 510 510 510 511 511 511 511 511 511 512 512 513 513 513 513 514 514 514 514 515 515 515 516 516 516 516 516 517 517 517 517 517 517 518 518 518 518 518 518 519 519 519 519 519 520 520 520 521 521 521 522 522 523 523 523 523 524 524 524 524 525 525 526 526 526 527 527 528 528 528 529 529 530 530 531 531 531 531 531 531 531 531 531 531 0 0 0 0 0 0 0 0 0 0 0 0 0 0 0 0 0 0 0 0 0 0 0 0 0 0 0 0 0 0 0 0 0 0 0 0 0 0 0 0 0 0 0 0 0 0 0 0 0 0 0 0 0 0 0 0 0 0 0 0 0 0 0 0 0 0 0 0 0 0 0 0 0 0 0 0 0 0 0 0 0 0 0 0 0 0 0 0 0 0 0 0 0 0 0 0 0 0 0 0 0 0 0 0 0 0 0 0 0 0 0 0 0 0 0 0 0 0
0 0 0 0 460 460 460 460 460 460 460 460 461 461 461 461 461 461 461 461 462 462 462 462 462 463 463 464 465 465 465 465 465 465 465 465 465 465 465 465 466 466 466 466 466 467 467 467 467 468 468 468 468 468 468 469 469 469 469 469 469 469 469 469 469 469 469 469 470 470 470 470 470 471 471 471 471 471 472 472 473 473 474 474 474 474 474 474 475 475 475 475 475 475 475 475 476 476 476 476 0 0 0 0 477 477 477 477 477 0 0 0 0 478 479 478 479 479 479 479 480 480 480 480 480 480 480 480 481 481 481 481 481 481 481 482 482 482 483 483 483 483 484 484 484 485 485 485 486 486 486 486 486 486 486 486 486 486 486 487 487 487 487 487 488 488 488 487 487 487 488 488 488 488 489 489 489 490 490 490 490 490 491 491 492 492 492 492 493 493 493 494 494 494 494 493 494 494 494 494 494 494 494 495 495 495 495 495 495 495 495 495 495 495 495 495 495 495 495 496 496 497 497 498 498 498 499 499 499 499 499 500 500 500 500 500 500 501 501 502 502 502 502 503 503 503 503 503 503 504 504 504 504 504 504 504 505 505 505 505 505 505 506 506 506 506 506 506 507 507 508 508 508 508 508 509 509 509 510 510 510 510 510 510 511 511 511 511 512 512 513 513 513 513 514 514 514 515 515 515 515 516 516 516 516 516 517 517 517 517 517 517 517 518 518 518 518 518 518 518 519 519 519 519 520 520 521 521 521 521 522 522 522 523 523 524 524 524 524 525 526 526 526 527 527 527 528 528 529 529 529 530 530 530 530 530 530 530 530 531 531 530 531 530 530 530 0 0 0 0 0 0 0 0 0 0 0 0 0 0 0 0 0 0 0 0 0 0 0 0 0 0 0 0 0 0 0 0 0 0 0 0 0 0 0 0 0 0 0 0 0 0 0 0 0 0 0 0 0 0 0 0 0 0 0 0 0 0 0 0 0 0 0 0 0 0 0 0 0 0 0 0 0 0 0 0 0 0 0 0 0 0 0 0 0 0 0 0 0 0 0 0 0 0 0 0 0 0 0 0 0 0 0 0 0 0 0 0 0 0
0 0 0 0 459 459 459 460 460 460 460 460 460 460 461 461 461 461 461 461 461 461 461 462 462 463 463 464 464 465 465 465 465 465 465 465 465 465 465 465 465 465 465 466 466 466 466 467 467 467 467 468 468 468 468 468 468 469 469 469 469 469 469 469 469 469 469 469 469 469 470 470 470 470 470 471 471 471 471 472 472 473 473 474 474 474 474 474 474 474 474 475 475 475 475 475 475 476 475 476 476 0 0 0 477 477 477 477 477 0 0 0 477 478 478 478 478 479 479 479 479 480 480 480 480 480 480 480 480 481 481 481 481 481 481 481 482 482 482 483 483 483 483 484 484 484 485 485 485 486 486 486 486 486 486 486 486 486 486 487 487 487 487 487 487 487 487 487 487 487 487 487 488 488 488 489 489 489 490 490 490 490 490 491 491 492 492 492 493 493 493 493 494 494 493 493 493 493 493 493 494 494 494 494 495 495 495 495 495 495 495 495 495 495 495 495 495 495 495 495 496 497 497 497 498 498 498 499 499 499 499 499 499 499 500 500 500 500 501 501 502 502 502 502 502 503 503 503 503 503 503 504 504 504 504 504 504 504 505 505 505 505 506 506 506 506 506 506 507 507 507 508 508 508 508 508 509 509 509 510 510 510 510 510 510 511 511 511 511 512 512 513 513 513 513 514 514 514 515 515 515 515 516 516 516 516 516 516 517 517 517 517 517 517 517 518 518 518 518 518 518 518 519 519 519 520 520 520 521 521 521 522 522 522 523 523 524 524 524 525 525 526 526 526 527 527 528 528 528 529 529 529 530 530 530 530 530 530 530 530 530 530 530 530 530 530 530 530 530 0 0 0 0 0 0 0 0 0 0 0 0 0 0 0 0 0 0 0 0 0 0 0 0 0 0 0 0 0 0 0 0 0 0 0 0 0 0 0 0 0 0 0 0 0 0 0 0 0 0 0 0 0 0 0 0 0 0 0 0 0 0 0 0 0 0 0 0 0 0 0 0 0 0 0 0 0 0 0 0 0 0 0 0 0 0 0 0 0 0 0 0 0 0 0 0 0 0 0 0 0 0 0 0 0 0 0 0 0 0 0
0 0 0 0 459 459 459 459 459 459 460 460 460 460 460 460 460 461 461 461 461 461 461 462 462 462 463 463 464 464 464 465 465 465 465 465 465 464 465 465 465 465 465 465 466 466 466 466 467 467 467 467 468 468 468 468 468 468 468 468 468 468 468 468 468 469 469 469 469 469 469 469 470 470 470 470 470 471 471 472 472 472 473 473 473 474 474 474 474 474 474 474 475 475 475 475 475 475 475 476 476 476 0 0 476 477 476 476 476 0 0 0 477 477 478 477 478 478 479 479 479 479 479 480 480 480 480 480 480 480 480 481 481 481 481 481 481 482 482 482 483 483 483 484 484 484 484 485 485 485 486 486 486 486 486 486 486 486 486 486 486 487 487 487 487 487 487 487 487 487 487 487 487 487 488 488 489 489 489 489 490 490 490 490 491 491 492 492 493 493 493 493 493 493 493 493 493 493 493 493 493 493 494 494 494 494 495 495 495 495 495 495 494 494 494 495 495 495 495 495 496 496 497 497 498 498 498 498 499 499 499 499 499 499 499 500 500 500 500 501 501 502 502 502 502 502 502 502 503 503 503 503 503 504 504 504 504 504 504 505 505 505 505 506 506 506 506 506 506 507 507 507 508 508 508 508 508 509 509 509 509 509 510 510 510 510 511 511 511 511 512 512 513 513 513 513 514 514 514 514 515 515 516 516 516 516 516 516 516 516 516 516 517 517 517 517 517 518 518 518 518 518 518 518 519 519 519 520 520 521 521 521 521 522 522 523 523 523 524 524 525 525 526 526 527 527 528 528 528 528 529 529 529 529 529 529 529 529 529 529 529 529 529 529 529 530 530 530 530 530 530 530 0 0 0 0 0 0 0 0 0 0 0 0 0 0 0 0 0 0 0 0 0 0 0 0 0 0 0 0 0 0 0 0 0 0 0 0 0 0 0 0 0 0 0 0 0 0 0 0 0 0 0 0 0 0 0 0 0 0 0 0 0 0 0 0 0 0 0 0 0 0 0 0 0 0 0 0 0 0 0 0 0 0 0 0 0 0 0 0 0 0 0 0 0 0 0 0 0 0 0 0 0 0 0 0 0 0 0 0
0 0 0 0 459 459 459 459 459 459 459 459 459 460 460 460 460 460 460 460 461 461 461 461 462 462 462 463 464 464 464 465 465 465 465 465 465 464 464 464 464 464 465 465 465 465 466 466 466 466 467 467 467 467 468 468 468 468 468 468 468 468 468 468 468 468 468 469 469 469 469 469 469 469 470 470 470 470 471 471 472 472 472 473 473 473 473 473 473 474 474 474 474 474 475 475 475 475 475 475 475 475 476 476 476 476 476 476 476 476 0 0 477 477 477 477 478 478 478 479 479 479 479 479 479 479 479 480 480 480 480 480 481 481 481 481 481 481 481 482 482 483 483 483 483 484 484 484 484 485 485 485 485 485 485 485 485 485 486 486 486 486 486 487 487 486 486 486 486 486 486 487 487 487 487 488 488 489 489 489 489 490 490 490 491 491 491 492 492 493 493 493 493 493 493 493 493 493 493 493 493 493 493 494 494 494 494 494 494 494 494 494 494 494 494 494 494 495 495 495 495 496 496 497 497 498 498 498 498 499 498 499 499 499 499 499 500 500 500 500 501 501 502 502 502 502 502 502 502 502 503 503 503 503 503 504 504 504 504 504 504 505 505 505 506 506 506 506 506 507 507 507 508 508 508 508 508 508 509 509 509 509 509 509 510 510 510 511 511 511 512 512 512 513 513 513 513 514 514 0 514 515 515 516 516 516 516 516 516 516 516 516 516 516 516 517 517 517 517 517 517 518 518 518 518 518 519 519 520 520 520 521 521 521 522 522 522 523 524 524 524 525 525 526 526 527 527 528 528 528 528 528 528 528 528 528 528 528 528 528 529 529 529 529 529 529 529 529 530 530 530 529 530 529 529 0 0 0 0 0 0 0 0 0 0 0 0 0 0 0 0 0 0 0 0 0 0 0 0 0 0 0 0 0 0 0 0 0 0 0 0 0 0 0 0 0 0 0 0 0 0 0 0 0 0 0 0 0 0 0 0 0 0 0 0 0 0 0 0 0 0 0 0 0 0 0 0 0 0 0 0 0 0 0 0 0 0 0 0 0 0 0 0 0 0 0 0 0 0 0 0 0 0 0 0 0 0 0 0 0
0 0 0 0 458 458 458 458 458 459 459 459 459 459 460 460 460 460 460 460 460 461 461 461 461 462 462 463 463 464 464 464 464 464 464 464 464 464 464 463 464 464 464 464 465 465 465 466 466 466 466 467 467 467 467 467 467 468 468 468 468 468 467 468 468 468 468 468 468 468 469 469 469 469 469 470 470 470 471 471 471 472 472 472 472 473 473 473 473 473 473 474 474 474 474 474 475 475 475 475 475 475 476 476 476 476 475 476 475 475 476 0 476 476 477 477 477 477 478 478 478 479 479 479 479 479 479 479 479 480 480 480 480 480 481 481 481 481 481 481 482 482 483 483 483 483 484 484 484 484 484 484 485 485 485 485 485 485 485 486 486 486 486 486 486 486 486 486 486 486 486 486 487 487 487 487 488 488 489 489 489 489 490 490 490 491 491 492 492 492 493 493 493 493 493 493 493 493 493 493 493 493 493 493 493 494 494 494 494 494 494 494 494 494 494 494 494 494 495 495 495 496 496 497 497 498 498 498 498 498 498 498 498 498 499 499 499 500 500 500 500 501 501 501 502 502 502 502 502 502 502 502 503 503 503 503 503 504 504 504 504 504 505 505 505 506 506 506 506 506 507 507 507 507 508 508 508 508 508 509 509 509 509 509 509 510 510 510 511 511 511 512 512 512 513 513 513 513 513 514 514 514 515 515 515 515 515 515 515 515 516 516 516 516 516 516 517 517 517 517 517 517 517 518 518 518 518 519 519 519 520 520 521 521 521 521 522 522 523 524 524 524 525 526 526 527 527 528 528 528 528 528 528 528 528 528 528 528 528 528 528 528 528 528 529 529 529 529 529 529 529 529 529 529 529 529 529 0 0 0 0 0 0 0 0 0 0 0 0 0 0 0 0 0 0 0 0 0 0 0 0 0 0 0 0 0 0 0 0 0 0 0 0 0 0 0 0 0 0 0 0 0 0 0 0 0 0 0 0 0 0 0 0 0 0 0 0 0 0 0 0 0 0 0 0 0 0 0 0 0 0 0 0 0 0 0 0 0 0 0 0 0 0 0 0 0 0 0 0 0 0 0 0 0 0 0 0 0 0 0
0 0 0 0 458 458 458 458 458 458 459 459 459 459 459 460 460 460 460 460 460 460 461 461 461 461 462 462 463 463 463 464 464 464 464 464 463 463 463 463 463 463 464 464 464 465 465 465 466 466 466 466 466 467 467 467 467 467 467 467 467 467 467 467 468 468 0 468 468 468 468 468 468 469 469 469 469 470 470 471 471 471 472 472 472 472 472 473 473 473 473 473 473 474 474 474 474 474 475 475 475 475 475 475 475 475 475 475 475 476 476 476 476 476 476 477 477 477 477 477 478 478 478 478 479 479 479 479 479 479 480 480 480 480 480 480 481 481 481 481 481 482 482 483 483 483 483 484 484 484 484 484 484 484 484 485 484 485 485 485 485 486 486 486 486 486 486 486 486 486 486 486 486 486 487 487 487 488 488 488 489 489 489 490 490 490 491 491 492 492 492 493 493 493 492 492 492 492 492 492 493 493 493 493 493 493 493 494 494 494 493 493 493 493 493 494 494 494 494 495 495 496 496 497 497 497 498 498 498 498 498 498 498 498 498 499 499 499 500 500 500 500 501 501 501 501 501 502 502 502 502 502 502 502 502 503 503 503 504 504 504 504 504 505 505 505 506 506 506 506 506 507 507 507 507 508 508 508 508 508 508 509 509 509 509 509 509 510 510 511 511 511 512 512 512 512 513 513 513 513 513 514 514 514 514 515 515 515 515 515 515 515 515 516 516 516 516 516 516 517 517 517 517 517 517 518 518 518 519 519 519 520 520 521 521 521 521 522 523 523 524 524 525 525 526 526 527 527 528 528 528 528 528 528 527 527 527 527 528 528 528 528 528 528 528 528 529 529 529 529 529 529 529 529 529 529 529 529 530 530 531 531 0 0 0 0 0 0 0 0 0 0 0 0 0 0 0 0 0 0 0 0 0 0 0 0 0 0 0 0 0 0 0 0 0 0 0 0 0 0 0 0 0 0 0 0 0 0 0 0 0 0 0 0 0 0 0 0 0 0 0 0 0 0 0 0 0 0 0 0 0 0 0 0 0 0 0 0 0 0 0 0 0 0 0 0 0 0 0 0 0 0 0 0 0 0 0 0 0 0
0 0 0 0 457 457 457 458 458 458 458 458 459 459 459 459 459 460 460 460 460 460 460 461 461 461 462 462 463 463 463 463 463 463 463 463 463 463 463 463 463 463 463 463 464 464 464 465 465 465 466 466 466 466 467 467 467 467 467 467 467 467 467 467 467 467 0 0 467 468 468 468 468 468 469 469 469 470 470 471 471 471 471 472 472 472 472 472 472 472 473 473 473 473 473 474 474 474 474 474 474 474 474 474 475 475 475 475 475 475 475 475 475 476 476 477 477 477 477 477 477 477 478 478 478 478 479 479 479 479 479 480 480 480 480 480 480 480 481 481 481 481 482 482 483 483 483 483 484 484 484 484 484 484 484 484 484 484 484 485 485 485 485 485 485 485 485 485 485 485 485 485 486 486 486 487 487 487 487 488 488 489 489 489 490 490 490 491 491 492 492 492 492 492 492 492 492 492 492 492 492 492 493 493 493 493 493 493 493 493 493 493 493 493 493 493 493 494 494 495 495 495 496 496 497 497 497 498 498 498 498 498 498 498 498 498 499 499 499 500 500 500 500 500 501 501 501 501 501 502 502 502 502 502 502 502 502 503 503 503 504 504 504 504 505 505 506 506 506 506 506 506 507 507 507 508 508 508 508 508 508 508 509 509 509 509 509 509 510 510 511 511 511 512 512 512 512 512 513 513 513 513 513 514 514 514 514 514 514 514 515 515 515 515 515 516 516 516 516 516 516 516 517 517 517 517 518 518 518 519 519 519 520 520 520 521 521 521 522 523 523 524 524 525 526 526 526 527 527 527 527 527 527 527 527 527 527 527 527 527 527 527 528 528 528 528 528 528 528 529 529 529 529 528 528 528 529 529 529 529 530 531 532 533 534 534 535 535 536 536 536 536 536 536 536 536 537 537 0 0 0 0 0 0 0 0 0 0 0 0 0 0 0 0 0 0 0 0 0 0 0 0 0 0 0 0 0 0 0 0 0 0 0 0 0 0 0 0 0 0 0 0 0 0 0 0 0 0 0 0 0 0 0 0 0 0 0 0 0 0 0 0 0 0 0 0 0 0 0 0 0 0 0 0 0 0 0 0 0 0
0 0 0 0 457 457 457 457 458 458 458 458 458 459 459 459 459 459 459 460 460 460 460 460 460 461 461 462 462 462 463 463 463 463 463 463 462 462 462 462 462 462 463 463 463 463 464 464 465 465 465 466 466 466 466 466 467 467 467 467 467 467 467 467 467 467 467 467 467 467 467 468 468 468 468 469 469 469 470 470 471 471 471 472 472 472 472 472 472 472 472 472 473 473 473 473 474 474 474 474 474 474 474 474 474 474 475 475 475 475 475 475 475 476 476 476 476 477 477 477 477 477 477 477 478 478 478 478 479 479 479 479 479 480 480 480 480 480 480 481 481 481 481 482 482 483 483 483 483 483 483 483 484 484 484 484 484 484 484 484 484 485 485 485 485 485 485 485 485 485 485 485 485 486 486 486 486 487 487 487 488 488 489 489 489 490 490 491 491 491 492 492 492 492 492 492 492 492 492 492 492 492 492 493 493 493 493 493 493 493 493 493 493 493 493 493 493 494 494 494 495 495 495 496 497 497 497 497 497 498 498 498 498 498 498 498 498 498 499 499 499 500 500 500 500 500 501 501 501 501 501 502 502 502 502 502 502 502 503 503 503 504 504 504 504 505 505 505 506 506 506 506 506 506 507 507 508 508 508 508 508 508 508 508 509 509 509 509 509 510 510 511 511 511 511 512 512 512 512 512 513 513 513 513 513 513 513 513 513 514 514 514 514 515 515 515 516 516 516 516 516 516 516 516 517 517 517 518 518 518 518 519 519 520 520 520 521 521 521 522 523 523 524 525 525 526 526 526 527 527 527 527 527 527 526 526 526 526 526 527 527 527 527 527 527 528 528 528 528 528 528 528 528 528 528 528 528 528 528 529 530 530 531 532 533 533 534 534 535 535 535 535 535 535 535 536 536 536 536 537 537 537 0 0 0 0 0 0 0 0 0 0 0 0 0 0 0 0 0 0 0 0 0 0 0 0 0 0 0 0 0 0 0 0 0 0 0 0 0 0 0 0 0 0 0 0 0 0 0 0 0 0 0 0 0 0 0 0 0 0 0 0 0 0 0 0 0 0 0 0 0 0 0 0 0 0 0 0 0 0
0 0 0 0 457 457 457 457 457 457 458 458 458 458 459 459 459 459 459 459 459 460 460 460 460 460 461 461 462 462 462 462 462 462 462 462 462 462 462 462 462 462 462 462 463 463 463 464 464 465 465 465 465 466 466 466 466 466 467 467 467 467 466 467 467 467 467 467 467 467 467 467 468 468 468 468 469 469 470 470 470 471 471 471 472 472 472 472 472 472 472 472 472 472 473 473 473 473 473 474 474 474 474 474 474 474 474 474 474 474 474 475 475 475 475 476 476 476 476 477 477 477 477 477 477 477 478 478 478 479 479 479 479 479 479 480 480 480 480 480 481 481 481 481 482 482 483 483 483 483 483 483 483 483 484 484 484 484 484 484 484 484 484 484 484 484 484 484 484 484 484 484 485 485 486 486 486 486 487 487 487 488 488 489 489 489 490 490 491 491 491 491 492 492 492 492 492 492 492 492 492 492 492 492 492 493 493 493 493 493 493 493 493 493 493 493 493 493 494 494 495 495 495 496 496 497 497 497 497 497 497 497 498 498 498 498 498 498 498 499 499 499 500 500 500 500 500 500 501 501 501 501 501 501 502 502 502 502 502 503 503 503 504 504 504 504 505 505 505 506 506 506 506 506 507 507 507 508 508 508 508 508 508 508 508 508 508 509 509 509 510 510 511 511 511 511 511 512 512 512 512 512 513 513 513 513 513 513 513 513 513 513 514 514 515 515 515 515 516 516 516 516 516 516 516 516 517 517 518 518 518 518 519 519 520 520 520 521 521 522 522 523 524 524 525 525 525 526 526 526 526 526 526 526 526 526 526 526 526 526 526 526 526 527 527 527 528 528 528 528 528 528 528 528 528 528 528 528 528 529 529 530 531 532 532 532 533 534 534 534 534 534 534 534 534 535 535 535 536 536 537 537 537 538 538 538 538 538 538 538 538 538 538 538 538 538 538 538 0 0 0 0 0 0 0 0 0 0 0 0 0 0 0 0 0 0 0 0 0 0 0 0 0 0 0 0 0 0 0 0 0 0 0 0 0 0 0 0 0 0 0 0 0 0 0 0 0 0 0 0 0 0 0 0 0 0 0 0 0 0
0 0 0 0 457 456 457 457 457 457 457 458 458 458 458 459 459 459 459 459 459 459 459 460 460 460 461 461 461 462 462 462 462 462 462 462 462 462 462 462 461 461 462 462 462 462 463 463 464 464 464 465 465 465 466 466 466 466 466 466 466 466 466 466 466 466 466 466 466 467 467 467 467 467 468 468 468 469 469 470 470 470 471 471 471 472 472 472 472 472 472 472 472 472 472 472 472 473 473 473 473 474 474 474 474 474 474 474 474 474 474 474 474 475 475 475 476 476 476 476 476 477 477 477 477 477 477 478 478 478 479 479 479 479 479 479 479 480 480 480 480 481 481 481 481 482 482 482 483 483 483 483 483 483 483 484 484 484 484 484 484 484 484 484 484 484 484 484 484 484 484 484 484 485 485 486 486 486 486 487 487 487 488 488 489 489 489 490 490 490 491 491 491 491 491 491 491 491 491 491 491 492 492 492 492 492 492 492 492 492 493 493 493 493 493 493 493 493 494 494 494 495 495 495 496 496 497 497 497 497 497 497 497 497 498 498 498 498 498 498 499 499 499 499 500 500 500 500 500 500 500 501 501 501 501 501 502 502 502 502 502 503 503 504 504 504 504 505 505 505 505 506 506 506 506 507 507 507 508 508 508 508 508 508 508 508 508 508 508 509 509 510 510 510 511 511 511 511 511 511 511 512 512 512 512 512 512 512 512 513 513 513 513 514 514 514 515 515 515 516 516 516 516 516 516 516 516 517 517 518 518 518 518 519 519 519 520 520 521 521 522 523 523 524 524 525 525 525 526 526 526 526 526 526 526 525 525 525 525 525 526 526 526 526 526 527 527 528 528 528 528 528 528 528 528 528 528 528 528 528 529 529 530 531 531 532 532 533 533 533 533 533 533 533 533 534 534 534 535 536 536 536 536 537 537 537 537 537 537 538 538 538 538 538 538 538 538 538 538 538 538 538 539 539 539 539 539 540 540 0 0 0 0 0 0 0 0 0 0 0 0 0 0 0 0 0 0 0 0 0 0 0 0 0 0 0 0 0 0 0 0 0 0 0 0 0 0 0 0 0 0 0 0 0 0 0 0 0 0 0
0 0 0 0 456 456 456 456 457 457 457 457 458 458 458 458 458 459 459 459 459 459 459 459 460 460 460 461 461 461 461 462 462 462 462 461 461 461 461 461 461 461 461 461 462 462 462 463 463 463 464 464 465 465 465 466 466 466 466 466 466 466 466 466 466 466 466 466 466 466 466 467 467 467 467 468 468 468 469 469 470 470 470 471 471 471 471 471 471 472 472 472 472 472 472 472 472 472 472 473 473 473 473 473 473 473 473 473 473 473 473 474 474 474 474 475 475 475 476 476 476 476 476 477 477 477 477 477 478 478 478 479 479 479 479 479 479 479 480 480 480 480 481 481 481 481 482 482 482 482 483 483 483 483 483 483 483 483 484 484 484 484 484 484 483 483 483 483 483 484 484 484 484 484 485 485 485 486 486 486 487 487 487 488 488 489 489 489 490 490 490 490 490 491 491 491 491 491 491 491 491 491 491 492 492 492 492 492 492 492 492 492 492 493 493 493 493 493 493 494 494 495 495 495 495 496 496 496 497 497 497 497 497 497 497 497 498 498 498 498 498 498 499 499 499 499 500 500 500 500 500 500 500 500 501 501 501 501 502 502 502 502 503 503 503 504 504 504 504 505 505 505 506 506 506 506 507 507 507 508 508 508 508 508 508 508 508 508 508 508 509 509 510 510 510 510 511 511 511 511 511 511 511 511 511 511 511 512 512 512 512 513 513 513 513 514 514 515 515 515 515 515 516 516 516 516 516 516 517 517 518 518 518 518 519 519 519 520 520 521 521 522 523 524 524 524 525 525 525 525 525 525 525 525 525 525 525 525 525 525 525 525 525 526 526 526 527 527 527 528 528 528 528 528 528 528 528 528 528 528 528 529 529 530 531 531 532 532 532 532 532 532 532 532 533 533 533 533 534 535 535 536 536 536 536 536 537 537 537 537 537 537 538 538 538 537 538 538 537 537 538 538 538 538 539 539 539 540 540 540 540 540 540 540 539 540 540 540 540 540 0 0 0 0 0 0 0 0 0 0 0 0 0 0 0 0 0 0 0 0 0 0 0 0 0 0 0 0 0 0 0 0 0 0 0 0 0 0 0 0
0 0 0 0 456 456 456 456 456 457 457 457 457 458 458 458 458 458 459 459 459 459 459 459 459 460 460 460 461 461 461 461 461 461 461 461 461 461 461 461 461 461 461 461 461 461 462 462 463 463 463 464 464 465 465 465 465 466 466 466 466 466 466 466 466 466 466 466 466 466 466 466 467 467 467 467 468 468 468 469 469 470 470 470 471 471 471 471 471 471 471 471 472 472 472 472 472 472 472 472 472 472 473 473 473 473 472 473 472 473 473 473 473 474 474 474 475 475 475 475 476 476 476 476 476 477 477 477 477 477 478 478 478 478 479 479 479 479 479 480 480 480 480 481 481 481 481 481 482 482 482 482 482 483 483 483 483 483 483 483 483 483 483 483 483 483 483 483 483 483 483 483 484 484 484 484 485 485 486 486 486 487 487 487 488 488 489 489 489 490 490 490 490 490 490 490 490 490 490 490 490 491 491 491 491 492 492 492 492 492 492 492 492 492 492 493 493 493 493 494 494 494 495 495 495 495 495 496 496 496 497 497 497 497 497 497 497 497 497 498 498 498 498 498 499 499 499 499 500 500 500 500 500 500 500 500 501 501 501 502 502 502 502 503 503 503 504 504 504 504 504 505 505 506 506 506 507 507 507 508 508 508 508 508 507 508 508 508 508 508 508 509 509 509 510 510 510 510 511 510 511 511 511 511 511 511 511 511 511 511 512 512 512 513 513 513 514 514 515 515 515 515 515 515 516 516 516 516 516 517 517 518 518 518 518 518 519 519 520 521 521 522 522 523 524 524 524 524 525 525 525 525 525 525 524 524 524 524 524 524 524 524 525 525 525 526 526 527 527 527 527 528 528 528 528 528 528 528 528 528 528 528 529 529 530 530 531 532 532 532 532 532 532 532 532 532 532 533 533 534 534 535 535 535 536 536 536 536 536 536 537 537 537 537 537 537 537 537 537 537 537 537 538 538 538 539 539 539 540 539 539 539 540 539 539 539 540 540 540 540 540 540 541 541 541 0 0 0 0 0 0 0 0 0 0 0 0 0 0 0 0 0 0 0 0 0 0 0 0 0 0 0 0 0 0 0 0 0 0 0
0 0 0 0 456 456 456 456 456 456 457 457 457 457 458 458 458 458 458 458 458 459 459 459 459 459 460 460 460 460 461 461 461 461 461 461 461 461 461 461 461 461 461 461 461 461 461 462 462 463 463 463 464 465 465 465 465 465 465 465 466 466 466 466 465 465 465 465 466 466 466 466 466 466 467 467 467 468 468 469 469 469 470 470 470 471 471 471 471 471 471 471 471 471 471 471 472 472 472 472 472 472 472 472 472 472 472 472 472 472 472 472 473 473 474 474 474 475 475 475 475 475 476 476 476 476 476 477 477 477 477 478 478 478 478 478 479 479 479 479 480 480 480 480 481 481 481 481 481 481 482 482 482 482 483 483 483 483 483 483 483 483 483 483 483 483 483 483 483 483 483 483 483 484 484 484 484 485 485 486 486 486 487 487 487 488 488 489 489 489 489 490 490 490 490 490 490 490 490 490 490 490 490 491 491 491 492 492 492 492 492 492 492 492 492 492 493 493 493 494 494 494 494 495 495 495 495 495 495 496 496 496 497 497 497 497 497 497 497 497 497 498 498 498 498 498 499 499 499 499 500 500 500 500 500 500 500 500 501 501 501 502 502 502 502 503 503 504 504 504 504 504 505 505 506 506 506 507 507 507 507 507 507 507 507 507 507 507 507 508 508 508 508 509 509 509 510 510 510 510 510 510 510 510 510 510 510 511 511 511 511 511 512 512 513 513 514 514 514 515 515 515 515 515 515 515 516 516 516 516 517 517 518 518 518 518 518 519 519 520 521 521 522 522 523 524 524 524 524 524 524 524 524 524 524 524 524 524 524 524 524 524 524 524 525 526 526 526 527 527 527 527 527 527 527 527 528 528 528 528 528 528 528 529 529 530 530 531 531 532 532 532 532 532 532 532 532 532 532 533 533 534 534 534 535 535 535 536 536 536 536 536 537 537 537 537 537 536 536 536 537 537 537 537 538 538 539 539 539 539 539 539 539 539 539 539 539 539 539 539 540 540 540 541 541 541 542 542 0 0 0 0 0 0 0 0 0 0 0 0 0 0 0 0 0 0 0 0 0 0 0 0 0 0 0 0 0 0 0 0
0 0 0 0 456 455 455 456 456 456 456 457 457 457 458 458 458 458 458 458 458 458 458 458 459 459 459 459 460 460 460 460 460 461 461 460 460 460 460 460 460 460 460 460 460 461 461 461 462 462 463 463 463 464 464 465 465 465 465 465 465 465 465 465 465 465 465 465 465 465 466 466 466 466 466 467 467 467 468 468 469 469 469 470 470 470 470 471 471 471 471 471 471 471 471 471 471 471 471 472 472 472 472 472 472 472 472 472 472 472 472 472 472 473 473 473 474 474 474 475 475 475 475 475 476 476 476 476 477 477 477 477 477 478 478 478 478 479 479 479 479 480 480 480 480 481 481 481 481 481 481 481 482 482 482 483 483 483 483 483 483 483 483 483 483 483 483 483 483 483 483 483 483 483 483 484 484 484 485 485 486 486 486 487 487 487 488 488 489 489 489 489 489 489 490 490 490 490 490 490 490 490 490 490 491 491 491 491 492 492 492 492 492 492 492 492 492 493 493 493 494 494 494 494 495 495 495 495 495 495 495 496 496 496 497 497 497 497 497 497 497 497 497 498 498 498 498 498 499 499 499 499 499 499 500 500 500 500 500 500 501 501 502 502 502 502 503 503 503 504 504 504 505 505 506 506 506 506 507 507 507 507 507 507 507 507 507 507 507 507 508 508 508 508 509 509 509 509 509 509 509 509 509 509 509 510 510 510 510 510 511 511 511 512 512 513 513 514 514 514 514 515 515 515 515 515 515 516 516 516 516 517 517 517 518 518 518 518 519 520 520 521 521 522 523 523 524 524 524 524 524 524 524 524 524 524 524 524 524 524 524 524 524 524 525 525 525 526 526 526 527 527 527 527 527 527 527 527 527 527 528 528 528 528 529 529 530 530 530 531 531 531 531 531 531 531 532 532 532 532 533 533 533 534 534 534 534 535 535 536 536 536 536 536 536 536 536 536 536 536 536 536 536 537 537 538 538 539 539 539 539 539 539 538 538 538 538 538 538 539 539 539 540 540 541 541 541 542 542 542 0 0 0 0 0 0 0 0 0 0 0 0 0 0 0 0 0 0 0 0 0 0 0 0 0 0 0 0 0 0
0 0 0 0 455 455 455 455 456 456 456 456 457 457 457 457 458 458 458 458 458 458 458 458 458 458 459 459 459 460 460 460 460 460 460 460 460 460 460 460 460 460 460 460 460 460 461 461 461 462 462 463 463 463 464 464 464 465 465 465 465 465 465 465 465 465 465 465 465 465 465 466 466 466 466 466 466 467 467 468 468 469 469 469 470 470 470 470 470 470 470 470 471 471 471 471 471 471 471 471 471 472 472 472 472 472 472 471 472 472 472 472 472 472 472 473 473 474 474 474 474 474 475 475 475 476 476 476 476 477 477 477 477 477 477 478 478 478 479 479 479 479 480 480 480 480 481 481 481 481 481 481 481 482 482 482 482 482 482 482 482 482 482 482 482 482 482 482 482 483 483 483 483 483 483 483 484 484 484 485 485 486 486 486 487 487 487 488 488 488 489 489 489 489 489 489 489 489 489 489 490 490 490 490 490 490 491 491 491 492 492 492 492 492 492 492 492 493 493 493 493 494 494 494 494 494 495 495 495 495 495 495 495 496 496 496 496 496 496 497 497 497 497 497 497 498 498 498 498 498 498 499 499 499 499 499 500 500 500 500 500 501 501 502 502 502 502 503 503 503 504 504 504 505 505 505 506 506 506 506 506 506 506 506 506 506 506 506 506 506 507 507 508 508 508 508 509 509 509 509 509 509 509 509 509 509 509 509 510 510 510 511 511 511 512 512 513 513 514 514 514 514 514 515 515 515 515 515 516 516 516 516 517 517 517 518 518 518 518 519 520 520 521 521 522 523 523 523 524 524 524 524 524 524 524 524 523 523 523 523 523 524 524 524 524 524 525 525 526 526 526 527 527 527 527 527 527 527 527 527 527 528 528 528 528 529 529 530 530 530 531 531 531 531 531 531 531 531 531 532 532 532 532 533 533 533 534 534 535 535 535 536 536 536 536 536 536 536 536 536 536 536 536 536 537 537 538 538 538 538 538 538 538 538 538 538 538 538 538 538 538 539 539 540 540 541 541 542 542 542 542 542 0 0 0 0 0 0 0 0 0 0 0 0 0 0 0 0 0 0 0 0 0 0 0 0 0 0 0 0
0 0 0 0 455 455 455 455 455 456 456 456 457 457 457 457 457 457 457 457 457 457 458 458 458 458 458 459 459 459 459 460 460 460 460 460 460 460 460 460 460 460 460 460 460 460 460 461 461 461 462 462 463 463 463 464 464 464 464 465 465 465 465 465 465 465 465 465 465 465 465 465 465 465 466 466 466 467 467 467 468 469 469 469 469 469 470 470 470 470 470 470 470 470 470 470 471 471 471 471 471 471 471 471 471 471 471 471 471 471 471 471 472 472 472 472 473 473 473 474 474 474 474 474 475 475 475 476 476 476 477 477 477 477 477 477 478 478 478 479 479 479 479 480 480 480 480 481 481 481 481 481 481 481 481 482 482 482 482 482 482 482 482 482 482 482 482 482 482 482 482 483 483 483 483 483 483 484 484 484 485 485 486 486 486 487 487 487 488 488 488 488 489 489 489 489 489 489 489 489 489 489 490 490 490 490 490 491 491 491 491 492 492 492 492 492 492 493 493 493 493 493 493 494 494 494 494 494 495 495 495 495 495 495 495 496 496 496 496 496 496 496 496 497 497 497 497 497 498 498 498 498 498 499 499 499 499 499 500 500 500 500 501 501 502 502 502 502 503 503 503 504 504 504 505 505 505 506 506 506 506 506 506 506 506 506 506 506 506 506 506 507 507 508 508 508 508 508 508 508 508 508 508 509 509 509 509 509 509 510 510 510 511 511 511 512 513 513 513 513 514 514 514 514 514 514 515 515 515 516 516 516 516 516 517 517 517 518 518 518 519 520 520 521 521 522 522 523 523 523 523 523 523 523 523 523 523 523 523 523 523 523 523 523 524 524 524 525 525 526 526 526 526 526 527 527 527 527 527 527 527 527 527 528 528 528 529 529 530 530 530 531 531 531 531 531 531 531 531 531 531 532 532 532 532 533 533 533 534 534 535 535 535 536 536 536 536 536 535 535 535 535 536 536 536 537 537 538 538 538 538 538 537 537 537 537 537 537 537 537 538 538 539 539 539 540 540 541 541 542 542 542 543 543 542 0 0 0 0 0 0 0 0 0 0 0 0 0 0 0 0 0 0 0 0 0 0 0 0 0
0 0 0 0 455 455 455 455 455 455 456 456 456 457 457 457 457 457 457 457 457 457 457 457 457 458 458 458 458 459 459 459 459 460 460 460 460 460 460 460 460 459 459 459 460 460 460 460 461 461 462 462 462 463 463 463 464 464 464 464 464 464 465 465 465 465 465 465 465 465 465 465 465 465 466 465 466 466 0 467 467 468 468 469 469 469 469 470 470 470 470 470 470 470 470 470 470 470 471 471 471 471 471 471 471 471 471 471 471 471 471 471 471 471 472 472 472 472 473 473 473 473 474 474 474 475 475 475 476 476 476 476 477 477 477 477 477 478 478 478 479 479 479 479 480 480 480 480 480 481 481 481 481 481 481 481 481 481 481 481 481 481 481 482 482 482 482 482 482 482 482 482 482 483 483 483 483 483 484 484 484 485 485 486 486 486 487 487 487 488 488 488 488 488 489 489 489 489 489 489 489 489 489 490 490 490 490 490 491 491 491 491 491 492 492 492 492 492 493 493 493 493 493 493 493 493 494 494 494 494 495 495 495 495 495 495 495 495 496 495 495 496 496 496 497 497 497 497 497 498 498 498 498 498 498 499 499 499 499 500 500 500 500 500 501 502 502 502 502 503 503 503 504 504 504 505 505 505 506 506 506 506 506 505 505 505 505 505 506 506 506 506 507 507 507 508 508 508 508 508 508 508 508 508 508 508 508 509 509 509 509 510 510 511 511 512 512 513 513 513 513 514 514 514 514 514 514 514 515 515 515 516 516 516 516 516 517 517 518 518 519 519 520 521 521 521 522 522 522 523 523 523 523 523 523 523 522 522 522 522 522 523 523 523 523 524 524 525 525 526 526 526 526 526 526 526 526 526 527 527 527 527 527 528 528 528 529 529 529 530 530 530 530 530 530 530 530 530 530 531 531 531 531 532 532 532 532 533 533 534 534 534 535 535 535 535 535 535 535 535 535 535 535 536 536 536 537 537 537 537 537 537 537 537 536 537 536 536 537 537 537 537 538 538 539 539 540 540 541 541 542 542 542 542 542 542 542 542 0 0 0 0 0 0 0 0 0 0 0 0 0 0 0 0 0 0 0 0 0 0
0 0 0 0 454 455 455 455 455 455 455 456 456 456 457 457 457 457 457 457 457 457 457 457 457 457 458 458 458 458 459 459 459 459 459 459 459 459 459 459 459 459 459 459 459 459 460 460 460 461 461 462 462 462 463 463 463 463 463 464 464 464 464 464 464 465 465 465 465 465 465 465 465 465 465 465 0 0 0 467 467 468 468 468 469 469 469 469 469 469 469 469 469 470 470 470 470 470 470 470 471 471 471 471 471 471 471 471 471 471 471 471 471 471 471 471 472 472 472 472 473 473 473 474 474 474 475 475 475 476 476 476 476 477 477 477 477 477 478 478 478 479 479 479 479 480 480 480 480 480 480 480 481 481 481 481 481 481 481 481 481 481 481 481 481 481 482 482 482 482 482 482 482 482 482 483 483 483 483 484 484 484 485 486 486 486 486 487 487 487 487 488 488 488 488 488 488 488 488 489 489 489 489 489 490 490 490 490 490 491 491 491 491 491 492 492 492 492 492 493 493 493 493 493 493 493 493 493 494 494 494 495 495 495 495 495 495 495 495 495 495 495 495 495 496 496 497 497 497 497 498 498 498 498 498 498 498 499 499 499 499 500 500 500 501 501 502 502 502 502 503 503 504 504 504 504 505 505 505 505 505 505 505 505 505 505 505 505 505 505 506 506 506 507 507 507 507 508 508 508 508 508 508 508 508 508 508 508 508 509 509 509 510 510 511 511 512 512 513 513 513 513 513 513 513 514 514 514 514 515 515 515 515 516 516 516 516 516 517 518 518 519 519 520 521 521 521 522 522 522 522 522 522 522 522 522 522 522 522 522 522 522 522 523 523 524 524 524 525 525 526 526 526 526 526 526 526 526 526 526 526 527 527 527 528 528 528 529 529 530 530 530 530 530 530 530 530 530 530 530 530 530 531 531 531 532 532 532 532 533 534 534 534 535 535 535 535 535 534 534 534 534 535 535 535 536 536 536 537 537 537 537 537 536 536 536 536 536 536 536 536 537 537 537 538 538 539 539 540 541 541 542 542 542 542 542 542 542 542 542 542 542 0 0 0 0 0 0 0 0 544 544 544 544 0 0 0 0 0 0
