0 0 0 0 0 634 634 635 635 637 637 638 639 639 639 639 640 640 639 639 639 639 639 639 639 639 639 638 638 638 637 637 637 637 637 637 637 637 637 638 639 639 639 639 639 639 639 639 639 639 639 639 639 639 640 640 640 641 641 641 641 641 640 640 639 639 639 638 638 637 637 637 637 637 637 638 639 639 639 640 641 641 641 641 641 641 641 640 640 639 639 639 638 638 638 638 638 638 638 639 639 639 639 639 639 639 639 639 639 639 639 639 639 639 639 639 640 641 641 641 641 641 641 641 641 641 641 640 640 640 639 639 639 639 639 638 638 638 637 637 637 637 636 636 636 637 637 637 637 637 637 637 637 637 637 637 637 638 638 639 639 639 639 639 639 639 639 639 639 639 639 639 639 639 639 639 639 640 640 640 640 640 640 641 641 641 641 641 641 641 641 641 641 641 641 641 641 641 641 641 641 641 641 641 640 639 639 639 638 637 637 637 637 637 637 637 637 637 638 638 638 638 638 638 638 638 638 638 638 638 638 638 638 638 638 638 638 639 639 639 639 639 639 639 639 639 639 639 639 639 639 639 639 639 639 639 639 639 639 639 639 639 639 639 639 639 639 639 639 639 638 638 637 637 637 637 637 637 638 638 639 639 639 639 639 639 639 639 639 639 638 638 637 637 637 637 637 637 637 637 637 637 637 637 638 638 639 639 639 639 639 639 638 638 638 638 638 638 638 638 638 638 638 638 638 638 638 638 638 639 639 639 639 639 639 639 639 639 639 639 638 638 638 638 638 638 638 638 638 638 639 639 639 639 639 639 639 639 639 639 638 638 638 638 637 637 637 637 637 638 638 638 638 638 638 638 638 638 638 637 637 637 637 637 637 637 637 637 636 636 635 635 635 635 635 635 635 635 635 635 635 635 635 634 634 634 634 634 635 635 635 635 634 634 634 634 634 634 634 634 634 634 634 633 633 633 633 633 633 633 633 633 633 634 634 634 634 634 634 633 633 633 634 634 634 634 635 636 637 639 642 643 646 647 649 650 0 0 0 0 0 0 0 0 0 0 0 0 0 0 0 0 0 0 0 0 0 0 0 0
0 0 0 0 632 633 634 635 635 636 637 637 637 638 638 639 639 639 639 639 638 638 638 638 638 637 637 637 637 637 636 636 635 635 635 635 635 635 636 637 637 637 638 638 638 638 638 638 638 638 638 638 638 639 639 639 639 639 639 639 639 639 639 639 638 638 637 637 637 636 636 635 635 636 636 637 637 637 638 639 639 639 639 639 639 639 639 639 639 638 637 637 637 637 637 637 637 637 637 638 638 638 638 638 639 638 638 638 637 637 637 637 637 637 638 639 639 639 639 640 641 641 640 640 640 640 639 639 639 639 639 639 638 638 638 637 637 637 636 636 636 635 635 635 635 635 635 636 636 636 636 636 636 636 636 636 636 637 637 637 637 638 638 638 638 638 638 638 638 638 638 638 638 638 638 638 638 638 639 639 639 639 639 639 639 639 639 639 639 640 640 640 640 640 640 640 640 640 640 640 640 640 639 639 639 639 638 637 637 636 636 636 635 635 636 636 636 637 637 637 637 637 637 637 637 637 637 637 637 637 637 637 637 637 637 637 637 637 637 637 637 637 637 637 638 638 638 638 638 638 638 638 637 637 637 637 637 637 637 637 637 637 638 638 638 638 638 638 637 637 637 637 636 636 636 636 637 637 637 637 637 638 638 638 638 638 638 638 637 637 637 637 636 636 635 635 635 635 635 635 635 635 636 637 637 637 637 637 637 637 637 637 637 637 637 637 637 637 637 637 637 637 637 637 637 637 637 637 637 637 637 637 637 638 638 638 638 637 637 637 637 637 637 637 637 637 637 637 637 637 637 637 638 638 638 638 638 638 638 637 637 637 637 637 637 637 637 637 637 637 637 637 637 637 637 637 637 637 637 637 637 636 637 636 636 635 635 635 635 635 635 634 634 634 634 634 634 634 634 634 634 634 634 634 634 634 634 634 634 634 634 634 634 634 633 633 633 633 633 632 632 632 632 632 632 632 632 632 632 632 632 632 632 632 632 632 632 632 632 632 632 632 632 632 632 633 634 634 635 637 639 641 643 645 647 648 0 0 0 0 0 0 0 0 0 0 0 0 0 0 0 0 0 0 0 0 0 0 0 0
0 0 0 0 631 633 634 634 635 635 636 637 637 637 637 637 637 637 637 637 637 637 637 637 637 637 637 636 636 635 635 635 634 634 634 634 634 634 635 635 636 637 637 637 637 637 637 637 637 637 637 637 637 637 637 637 638 638 638 638 638 638 637 637 637 637 636 635 635 635 635 635 634 635 635 635 636 636 637 637 638 638 638 638 638 638 638 637 637 637 636 636 635 635 636 636 636 636 637 637 637 637 637 637 637 637 637 637 637 636 636 636 636 637 637 637 638 638 639 639 639 639 639 639 639 639 639 638 638 638 637 637 637 637 637 637 636 636 635 635 635 635 634 634 634 634 635 635 635 635 635 635 635 635 635 635 635 635 635 636 636 637 637 637 637 637 637 637 637 637 637 637 637 637 637 637 637 637 637 637 637 637 638 638 638 638 638 638 638 639 639 639 639 639 639 639 639 639 639 639 639 639 638 638 637 637 637 636 635 635 635 635 635 635 635 635 635 635 635 635 635 635 635 635 635 635 635 635 635 636 636 636 636 637 637 637 637 637 637 637 637 637 637 637 637 637 637 637 637 637 637 637 636 636 636 636 636 636 636 636 636 637 637 637 637 637 637 637 637 636 636 636 635 635 635 635 635 635 636 636 636 637 637 637 637 637 637 637 636 636 635 635 635 635 634 634 634 634 634 634 634 634 635 635 636 636 636 637 637 637 637 637 636 636 636 636 636 636 636 636 636 636 636 635 635 635 635 635 635 636 636 636 636 637 637 637 637 637 637 636 636 636 636 636 636 636 636 636 636 636 636 637 637 637 637 637 637 637 637 637 637 636 636 636 635 635 635 635 635 635 635 635 635 635 635 635 635 635 635 635 635 635 635 635 635 635 634 634 634 634 634 633 633 633 633 633 633 633 633 632 632 632 632 632 632 632 632 632 633 633 633 633 632 632 632 632 632 632 632 632 632 632 632 631 631 631 631 630 630 630 630 630 630 631 631 631 631 631 631 631 632 632 632 632 632 632 632 633 634 635 637 0 640 642 644 0 0 0 0 0 0 0 0 0 0 0 0 0 0 0 0 0 0 0 0 0 0 0 0 0
0 0 0 0 631 632 633 634 634 635 635 635 636 636 636 636 637 637 637 637 636 636 636 636 636 636 635 635 635 635 634 634 633 633 633 633 633 634 634 634 635 635 636 636 636 636 637 637 636 636 636 636 636 636 637 637 637 637 637 637 637 637 637 636 636 635 635 635 634 634 634 634 634 634 634 634 635 635 635 636 637 637 637 637 637 637 637 636 636 635 635 635 635 635 635 635 635 635 635 635 635 636 636 636 636 636 636 636 635 635 635 635 635 635 636 636 637 637 637 638 638 638 638 638 638 638 637 637 637 637 637 637 636 636 636 636 635 635 635 634 634 634 634 634 634 634 634 634 634 634 634 634 634 634 634 634 634 634 634 635 635 635 635 636 636 636 636 636 636 636 636 635 635 635 635 635 635 635 635 636 636 636 637 637 637 637 637 637 637 637 637 637 637 637 637 638 638 638 638 638 638 637 637 637 637 636 635 635 635 634 634 634 634 634 634 634 634 634 634 634 634 634 634 634 634 635 635 635 635 635 635 635 635 635 636 636 636 636 636 636 635 636 636 635 635 635 635 635 635 635 635 635 635 635 635 635 635 635 635 635 635 635 636 636 636 636 635 635 635 635 635 635 634 634 634 634 634 634 635 635 635 635 635 635 635 635 635 635 635 635 635 634 634 634 634 633 633 633 633 633 633 634 634 635 635 635 635 636 636 636 636 635 635 635 635 635 635 635 635 635 635 635 635 635 635 635 635 635 635 635 635 635 635 635 635 635 635 635 635 635 635 635 635 635 635 635 635 635 635 635 635 635 636 636 636 636 636 636 636 635 635 635 635 635 635 635 634 634 634 634 634 634 634 634 634 634 634 634 634 634 634 634 634 634 634 634 634 634 633 633 632 632 632 632 632 632 632 632 632 632 632 632 632 632 632 632 632 632 632 632 632 632 632 632 632 631 631 631 631 630 630 630 630 630 630 630 630 630 630 630 630 630 630 630 630 630 630 630 630 630 630 630 631 631 631 631 631 632 632 633 634 635 637 639 0 0 0 0 0 0 0 0 0 0 0 0 0 0 0 0 0 0 0 0 0 0 0 0 0 0
0 0 0 0 630 632 632 633 634 634 635 635 635 635 635 635 635 635 635 635 635 635 635 635 635 635 635 634 634 634 633 633 632 632 632 632 632 632 633 634 634 635 635 635 635 635 635 635 635 635 635 635 635 635 635 635 635 635 635 635 635 635 635 635 635 634 634 634 634 633 633 632 632 632 633 633 634 634 634 635 635 635 636 636 635 635 635 635 635 634 634 634 634 634 634 634 634 634 634 635 635 635 635 635 635 635 635 635 635 634 634 634 634 634 635 635 635 636 637 637 637 637 637 637 637 637 637 636 636 636 635 635 635 635 635 635 635 634 634 634 634 634 633 633 633 633 633 633 633 633 633 633 633 633 633 633 633 633 634 634 634 634 635 635 635 635 635 635 635 635 635 635 635 634 634 634 634 634 634 635 635 635 635 635 636 636 636 636 636 636 636 636 636 637 637 637 637 637 637 637 637 636 636 635 635 635 635 634 634 634 633 633 633 633 634 634 634 634 634 634 634 634 634 634 634 634 634 634 634 634 634 635 635 635 635 635 635 635 635 635 635 635 635 635 635 635 635 635 635 635 634 634 634 634 634 634 634 634 634 634 635 635 635 635 635 635 635 635 634 634 634 634 634 634 633 634 634 634 634 634 634 635 635 635 635 634 634 634 634 634 634 634 633 633 632 632 632 632 632 632 632 633 634 634 634 634 635 635 635 635 635 635 635 635 634 634 635 635 635 635 635 635 634 634 634 634 634 634 634 634 634 634 634 634 634 635 635 635 635 634 634 634 634 634 634 634 634 634 634 634 635 635 635 635 635 635 635 635 635 635 635 634 634 634 634 634 634 634 634 634 633 633 633 633 633 633 633 633 634 634 634 634 634 633 633 633 632 632 632 632 631 631 631 631 631 631 631 631 631 631 630 630 630 630 630 630 631 631 631 631 631 631 631 630 630 630 630 630 630 630 630 630 630 629 629 629 629 629 629 629 629 629 629 629 629 629 630 630 630 630 630 630 630 630 630 630 630 630 630 631 632 634 635 0 0 0 0 0 0 0 0 0 0 0 0 0 0 0 0 0 0 0 0 0 0 0 0 0 0 0
0 0 0 0 630 632 632 632 633 634 634 634 634 634 634 634 634 634 634 634 634 634 634 634 634 634 634 634 633 633 632 632 631 631 630 630 631 632 632 632 633 634 634 634 634 635 635 635 635 635 635 635 635 635 634 634 634 634 634 634 634 634 634 634 634 634 633 633 632 632 632 632 632 632 632 632 632 633 633 634 634 635 635 635 635 635 634 634 634 634 633 633 633 633 633 633 633 634 634 634 634 634 634 634 634 634 634 634 634 634 634 633 633 634 634 634 635 635 635 636 636 636 636 636 636 636 636 635 635 635 635 635 634 634 634 634 634 634 634 634 633 633 632 632 632 632 632 632 632 632 632 632 632 632 632 632 632 632 632 633 633 634 634 634 634 634 634 634 634 634 634 634 634 634 633 633 633 633 634 634 634 634 634 635 635 635 635 635 635 635 635 635 635 635 635 635 635 635 635 635 635 635 635 635 634 634 634 634 633 633 632 632 632 632 633 633 633 633 633 633 633 633 633 633 633 633 633 633 634 634 634 634 634 634 634 634 634 634 634 634 634 634 634 634 634 634 634 634 634 634 634 634 634 634 634 634 634 634 634 634 634 634 634 634 634 634 634 634 634 634 634 633 633 632 632 632 633 633 633 634 634 634 634 634 634 634 634 634 633 633 633 632 632 632 632 631 631 631 631 631 632 632 632 633 634 634 634 634 634 634 634 634 634 634 634 634 634 634 634 634 634 634 634 634 633 633 633 633 633 633 633 633 634 634 634 634 634 634 634 634 634 634 633 633 633 633 633 633 633 634 634 634 634 634 634 634 634 634 634 634 634 634 633 633 633 633 632 632 632 632 632 632 632 632 632 632 632 632 632 632 632 632 632 632 632 632 632 631 630 630 630 630 630 630 630 630 630 630 630 630 630 630 630 630 630 630 630 630 630 630 630 630 630 630 630 629 629 629 629 629 629 629 629 629 629 628 628 628 628 628 628 628 628 628 628 629 629 629 629 629 629 629 629 630 630 630 629 629 629 630 630 632 0 0 0 0 0 0 0 0 0 0 0 0 0 0 0 0 0 0 0 0 0 0 0 0 0 0 0 0
0 0 0 0 630 631 632 632 632 633 633 633 633 634 634 634 634 634 634 634 634 634 634 634 633 633 633 633 632 632 631 631 630 630 630 630 630 630 631 632 632 633 633 634 634 634 634 634 634 634 634 634 634 634 634 634 634 634 634 634 634 633 633 633 633 632 632 632 632 631 631 631 631 631 631 631 632 632 632 632 633 634 634 634 634 634 634 633 632 632 632 632 632 632 632 632 632 633 633 633 633 634 634 634 634 634 633 633 633 632 632 632 632 632 633 634 634 634 635 635 635 635 635 635 635 635 635 635 634 634 634 634 634 634 634 633 633 633 633 632 632 632 632 632 631 631 631 631 631 631 631 631 632 632 632 632 632 632 632 632 632 632 633 633 634 634 634 634 634 634 633 633 632 632 632 632 632 632 632 632 633 633 634 634 634 634 634 634 634 634 634 634 634 634 634 634 634 634 634 634 634 634 634 634 634 634 633 633 632 632 632 632 632 632 632 632 632 632 632 632 632 632 632 632 632 632 632 632 632 633 633 633 633 634 634 634 634 634 634 634 634 634 634 634 634 634 633 633 633 633 633 633 633 633 633 632 632 632 633 633 633 633 633 633 633 633 633 633 633 632 632 632 632 632 632 632 632 632 632 633 633 633 633 633 632 632 632 632 632 632 632 632 632 631 631 630 630 630 630 630 630 631 632 632 632 633 634 634 634 634 634 633 633 633 633 633 633 633 633 633 633 633 633 632 632 632 632 632 632 632 632 632 632 633 633 633 633 633 633 632 632 632 632 632 632 632 632 632 632 632 633 633 633 633 634 634 634 634 633 633 633 632 632 632 632 632 632 632 632 632 632 631 631 631 631 631 631 631 631 632 632 632 632 632 631 631 630 630 630 630 630 630 629 629 629 629 629 629 629 629 629 629 629 629 629 629 629 629 629 629 629 629 629 629 629 629 629 628 628 628 628 627 627 627 627 627 627 627 627 627 627 627 627 627 627 627 627 628 628 628 629 629 629 629 629 629 629 628 629 629 629 630 0 0 0 0 0 0 0 0 0 0 0 0 0 0 0 0 0 0 0 0 0 0 0 0 0 0 0 0
0 0 0 0 630 630 631 632 632 632 632 632 632 632 632 632 632 632 632 632 632 632 632 632 632 632 632 632 632 631 630 630 630 629 629 629 629 630 630 631 631 632 632 632 632 633 633 633 633 633 633 633 633 633 633 632 632 632 632 632 632 632 632 632 632 632 631 631 630 630 630 630 630 630 630 630 631 631 631 632 632 632 633 633 633 633 632 632 632 631 631 631 631 631 631 632 632 632 632 632 632 632 633 633 632 632 632 632 632 632 632 632 632 632 632 632 633 633 634 634 634 634 634 634 634 634 634 634 633 633 633 633 632 632 632 632 632 632 632 632 632 631 631 630 630 630 630 630 630 630 630 630 630 630 630 630 631 631 631 631 632 632 632 632 632 632 632 632 632 632 632 632 632 631 631 631 631 631 632 632 632 632 632 633 633 633 633 633 633 633 633 633 633 633 633 634 634 634 634 634 634 634 633 633 633 632 632 632 632 631 631 631 631 631 632 632 632 632 632 632 632 632 632 632 632 632 632 632 632 632 632 632 632 632 632 633 633 633 633 633 633 633 633 633 632 632 632 632 632 632 632 632 632 632 632 632 632 632 632 632 632 632 632 632 632 632 632 632 632 632 632 632 631 631 631 631 632 632 632 632 632 632 632 632 632 632 632 632 631 631 631 631 630 630 630 630 630 630 630 630 630 630 631 631 632 632 632 633 633 633 632 632 632 632 632 632 632 632 632 632 632 632 632 632 632 631 631 631 631 631 631 632 632 632 632 632 632 632 632 632 632 632 632 632 631 631 631 631 631 632 632 632 632 632 632 632 632 632 632 632 632 632 631 631 631 631 631 630 630 630 630 630 630 630 630 630 630 630 630 630 630 630 630 630 630 630 629 629 629 629 629 629 629 629 629 629 629 629 629 628 628 628 628 628 628 628 628 629 629 629 629 629 629 628 628 628 627 627 627 627 627 627 627 627 627 627 627 626 626 626 626 626 626 626 626 627 627 627 627 627 627 628 628 628 628 628 628 627 627 627 628 629 0 0 0 0 0 0 0 0 0 0 0 0 0 0 0 0 0 0 0 0 0 0 0 0 0 0 0 0
0 0 0 0 629 630 630 631 631 632 632 632 632 632 632 632 632 632 632 632 632 632 631 631 631 631 631 631 630 630 629 629 629 628 628 629 629 629 629 630 630 631 631 631 632 632 632 632 632 632 632 632 632 632 632 632 632 632 632 632 632 632 631 631 631 631 630 630 630 629 629 629 629 629 629 630 630 630 630 631 631 632 632 632 632 632 632 631 631 630 630 630 630 630 630 630 631 631 632 632 632 632 632 632 632 632 632 631 631 631 630 630 630 631 631 631 632 632 632 633 633 633 633 634 634 633 633 632 632 632 632 632 632 632 632 632 632 631 631 631 630 630 630 630 630 630 630 630 630 630 630 630 630 630 630 630 630 630 630 630 630 630 631 631 632 632 632 632 632 632 631 631 630 630 630 630 630 630 630 631 631 631 632 632 632 632 632 632 632 632 632 632 632 632 632 632 632 632 632 632 632 632 632 632 632 632 632 631 631 630 630 630 630 630 631 631 631 631 631 631 631 631 631 631 631 631 631 631 631 631 631 631 632 632 632 632 632 632 632 632 632 632 632 632 632 632 632 632 632 632 631 631 631 631 631 631 631 631 631 631 631 631 631 631 631 631 631 631 631 631 631 630 630 630 630 630 631 631 631 631 631 631 631 631 631 631 630 630 630 630 630 630 630 630 629 629 629 629 629 629 629 630 630 630 630 631 632 632 632 632 632 632 631 631 631 631 631 631 631 631 631 631 631 631 630 630 630 630 630 630 630 630 630 631 631 631 631 631 631 631 631 631 630 630 630 630 630 630 630 630 631 631 631 631 631 631 631 631 631 631 630 630 630 630 630 630 630 630 630 630 630 629 629 629 629 629 629 630 630 630 630 630 630 629 629 629 629 629 628 628 628 627 627 627 627 627 627 627 627 627 627 627 627 627 627 627 627 627 627 628 628 627 627 627 627 627 627 626 626 626 626 626 626 625 625 625 625 625 625 625 625 625 625 625 625 625 625 626 626 626 626 627 627 627 627 627 627 627 627 626 626 627 0 0 0 0 0 0 0 0 0 0 0 0 0 0 0 0 0 0 0 0 0 0 0 0 0 0 0 0
0 0 0 0 629 629 630 630 630 630 630 630 630 630 630 630 630 630 630 630 630 630 630 630 630 630 630 630 629 629 629 629 628 627 627 627 628 628 629 629 630 630 630 630 630 630 630 630 631 631 631 631 631 631 631 631 631 631 631 631 631 630 630 630 630 630 629 629 629 629 629 629 629 629 629 629 629 629 630 630 630 630 631 631 632 631 631 630 630 630 630 630 630 630 630 630 630 630 630 631 631 631 631 631 631 630 630 630 630 630 630 630 630 630 630 630 630 631 632 632 632 632 632 632 632 632 632 632 632 631 631 631 631 630 630 630 630 630 630 630 630 630 629 629 629 629 629 629 629 629 629 629 629 629 629 629 629 629 630 630 630 630 630 630 630 630 630 630 630 630 630 630 630 630 630 630 630 630 630 630 630 630 630 631 631 631 631 632 632 631 631 631 631 631 631 632 632 632 632 632 632 632 632 631 631 631 630 630 630 630 630 630 630 630 630 630 630 630 630 630 630 630 630 630 630 630 630 630 630 630 630 630 631 631 631 631 632 632 632 632 631 631 631 631 631 631 631 631 630 630 630 630 630 630 630 630 630 630 630 630 630 630 630 630 630 630 630 630 630 630 630 630 630 630 630 630 630 630 630 630 630 630 630 630 630 630 630 630 630 629 629 629 629 629 629 629 628 628 628 628 629 629 629 630 630 630 631 631 631 631 631 630 630 630 630 630 630 630 630 630 630 630 630 630 630 629 629 629 629 630 630 630 630 630 630 630 630 630 630 630 630 630 630 630 630 629 629 629 629 630 630 630 630 630 630 630 630 630 630 630 630 630 629 629 629 629 629 629 629 629 629 629 629 629 629 629 629 629 629 629 629 629 629 629 629 628 628 627 627 627 627 627 627 627 627 627 627 627 627 627 626 626 626 626 626 626 627 627 627 627 627 627 627 627 626 626 625 625 625 625 625 625 625 625 625 625 625 625 625 624 625 625 625 624 624 625 625 625 625 625 625 625 626 626 626 627 626 626 626 625 625 625 0 0 0 0 0 0 0 0 0 0 0 0 0 0 0 0 0 0 0 0 0 0 0 0 0 0 0 0
0 0 0 0 628 629 629 629 629 630 630 630 630 630 630 630 630 630 629 629 629 629 629 629 629 629 629 629 629 628 627 627 627 627 627 627 627 627 628 629 629 629 629 629 629 629 630 630 630 630 630 630 630 630 630 630 630 630 630 630 630 630 630 629 629 629 629 628 628 628 628 627 627 627 627 628 628 629 629 629 630 630 630 630 630 630 630 630 630 629 629 629 629 629 629 629 629 630 630 630 630 630 630 630 630 630 630 630 629 629 629 629 629 629 629 630 630 630 630 630 631 631 631 631 632 631 631 631 630 630 630 630 630 630 630 630 630 629 629 629 629 629 629 629 628 628 628 628 628 628 628 628 628 629 629 629 629 629 629 629 629 629 629 629 630 630 630 630 630 630 629 629 629 629 629 629 629 629 629 629 629 630 630 630 630 630 630 630 630 630 630 630 630 630 630 630 630 630 630 631 631 631 630 630 630 630 630 630 630 629 629 629 629 629 630 630 630 630 630 630 630 630 630 630 630 629 629 629 629 630 630 630 630 630 630 630 630 630 630 630 630 630 630 630 630 630 630 630 630 630 630 630 630 630 630 630 630 630 629 629 629 629 629 629 629 629 629 629 629 629 629 629 629 629 629 629 630 630 630 630 630 630 630 630 629 629 629 629 629 629 629 629 629 628 628 627 627 627 627 627 628 628 629 629 629 630 630 630 630 630 630 630 630 630 630 630 630 630 630 630 630 629 629 629 629 629 629 629 629 629 629 629 629 629 629 629 629 629 629 629 629 629 629 629 629 629 629 629 629 629 629 629 629 629 629 629 629 629 629 629 629 629 628 628 628 628 628 628 628 627 627 627 627 627 627 627 627 628 628 628 628 628 628 628 628 627 627 627 626 626 626 625 625 625 625 625 626 626 625 625 625 625 625 625 625 625 625 626 626 626 626 626 626 625 625 625 625 625 624 624 624 624 624 624 624 624 624 624 624 624 624 624 624 624 624 624 624 624 624 624 624 625 625 625 625 625 625 625 625 625 624 625 0 0 0 0 0 0 0 0 0 0 0 0 0 0 0 0 0 0 0 0 0 0 0 0 0 0 0 0
0 0 0 0 627 627 628 629 629 629 629 629 629 629 629 629 629 629 629 629 629 628 628 628 628 628 628 627 627 627 627 626 626 626 626 626 626 627 627 627 628 629 629 629 629 629 629 629 629 629 629 629 630 630 630 630 630 630 630 630 629 629 629 629 628 628 627 627 627 627 627 627 627 627 627 627 627 628 628 629 629 629 629 630 630 630 630 629 629 629 628 628 628 628 628 629 629 629 629 629 629 629 629 629 629 629 629 629 629 629 629 629 629 629 629 629 629 629 629 630 630 630 630 630 630 630 630 630 630 630 629 629 629 629 629 629 629 629 629 628 628 628 628 627 627 627 627 627 627 627 627 627 627 627 627 627 628 628 628 628 628 629 629 629 629 629 629 629 629 629 629 628 628 628 628 628 628 628 628 629 629 629 629 629 629 630 630 630 630 630 630 630 629 630 630 630 630 630 630 630 630 630 630 630 630 630 629 629 629 629 629 629 629 629 629 629 629 629 629 629 629 629 629 629 629 629 629 629 629 629 629 629 629 629 629 630 630 630 630 630 630 630 630 630 630 630 629 629 629 629 629 629 629 629 629 629 629 629 629 629 629 629 629 629 628 628 628 628 628 629 629 629 629 629 629 629 629 629 629 629 629 629 629 629 629 629 629 628 628 628 628 628 627 627 627 627 627 627 627 627 627 627 628 628 629 629 629 630 630 630 629 629 629 629 629 629 629 629 629 629 629 629 629 628 628 628 628 628 628 628 628 628 628 628 628 628 628 628 628 628 628 628 628 628 628 628 628 627 627 628 628 628 628 629 629 629 629 628 628 628 627 627 627 627 627 627 627 627 627 627 627 627 627 627 627 627 627 627 627 627 627 627 627 627 627 627 627 626 625 625 625 625 625 625 625 625 625 625 625 625 625 625 625 625 625 625 625 625 625 625 625 625 625 625 625 624 624 624 624 624 624 623 623 623 623 623 623 623 623 623 623 623 623 623 622 622 622 622 623 623 624 624 624 624 625 625 625 624 624 624 624 624 0 0 0 0 0 0 0 0 0 0 0 0 0 0 0 0 0 0 0 0 0 0 0 0 0 0 0 0
0 0 0 0 626 627 627 627 628 628 628 628 628 628 628 627 627 627 627 627 627 627 627 627 627 627 627 627 626 626 625 625 625 625 625 625 625 626 626 627 627 627 627 627 627 627 627 628 628 628 628 628 629 629 629 629 629 629 629 629 629 629 628 627 627 627 627 626 626 626 626 625 625 625 626 626 627 627 627 627 628 629 629 629 629 629 629 629 628 628 627 627 627 627 627 627 628 628 628 629 629 629 629 629 629 628 628 628 628 627 627 627 627 628 628 628 628 628 629 629 629 629 629 630 630 629 629 629 629 629 629 629 628 628 628 628 628 627 627 627 627 627 627 627 627 627 627 627 627 627 627 627 627 627 627 627 627 627 627 627 627 627 627 628 628 628 628 628 628 628 627 627 627 627 627 627 627 627 627 627 628 628 628 628 629 629 629 629 629 629 629 629 629 629 629 629 629 629 629 629 629 629 629 629 629 629 629 629 629 628 628 628 628 628 629 629 629 629 629 629 629 629 628 628 628 628 628 628 628 628 628 628 628 629 629 629 629 629 629 629 629 629 629 629 629 629 629 629 629 629 629 629 629 629 628 628 628 628 628 628 628 627 627 627 627 627 627 627 627 627 627 628 628 628 628 628 628 628 628 629 629 629 629 628 628 627 627 627 627 627 627 627 627 627 627 626 626 626 626 626 626 627 627 627 628 629 629 629 629 629 629 629 629 628 628 628 628 628 628 628 628 627 627 627 627 627 627 627 627 627 627 627 627 627 627 627 627 627 627 627 627 627 627 627 627 627 627 627 627 627 627 627 627 627 627 627 627 627 627 627 627 626 626 626 626 626 626 625 625 625 625 625 625 625 625 625 626 626 627 627 627 627 627 627 627 626 625 625 625 625 624 624 624 624 624 624 624 624 624 624 624 624 624 624 624 624 624 624 624 624 624 624 624 624 624 624 623 623 623 622 622 622 622 622 622 622 622 622 622 622 622 622 622 622 622 621 621 621 622 622 622 622 623 623 624 624 624 624 624 624 622 623 622 0 0 0 0 0 0 0 0 0 0 0 0 0 0 0 0 0 0 0 0 0 0 0 0 0 0 0
0 0 0 0 625 626 627 627 627 627 627 627 627 627 627 627 627 627 627 626 626 626 626 626 626 625 625 625 625 625 625 624 624 624 624 625 625 625 625 626 626 626 626 626 626 626 626 626 627 627 627 627 628 628 629 629 629 629 629 628 628 627 627 627 626 626 625 625 625 625 625 625 625 625 625 625 625 626 627 627 627 627 628 628 628 628 628 628 627 627 627 627 627 627 627 627 627 627 627 627 627 627 627 627 627 627 627 627 627 627 627 627 627 627 627 627 627 627 627 628 628 628 629 629 629 629 629 629 629 628 628 627 627 627 627 627 627 627 627 627 627 626 626 626 626 625 625 625 625 625 625 625 625 625 626 626 626 626 626 626 627 627 627 627 627 627 627 627 627 627 627 627 627 626 626 627 627 627 627 627 627 627 627 627 627 627 628 628 628 628 628 628 628 628 628 628 628 628 628 628 628 628 628 628 628 628 628 628 628 627 627 627 627 627 627 628 628 628 627 627 627 627 627 627 627 627 627 627 627 627 627 627 627 627 627 628 628 628 629 629 629 629 629 629 629 628 628 628 628 628 628 628 628 627 627 627 627 627 627 627 627 627 627 627 626 626 626 627 627 627 627 627 627 627 627 627 627 627 627 628 628 628 627 627 627 627 627 627 627 626 626 626 626 626 625 625 625 625 625 625 625 625 626 627 627 627 628 628 628 628 628 628 628 627 627 627 627 627 627 627 627 627 627 626 626 626 626 626 626 626 626 626 627 626 626 626 626 626 626 626 626 627 627 626 626 626 626 626 626 626 626 626 626 627 627 627 627 626 626 625 625 625 625 625 625 625 625 625 625 625 625 625 625 625 625 625 625 625 625 626 626 626 626 626 625 625 625 624 624 624 624 624 624 624 624 624 624 624 624 624 624 624 624 624 624 624 624 624 624 624 624 624 624 623 623 623 622 622 622 622 622 621 621 621 621 621 621 621 621 621 621 621 621 621 621 621 620 620 621 621 621 621 622 622 622 623 623 623 622 622 622 622 621 0 0 0 0 0 0 0 0 0 0 0 0 0 0 0 0 0 0 0 0 0 0 0 0 0 0 0
0 0 0 0 625 625 625 626 626 626 626 626 626 626 626 626 626 625 625 625 625 625 625 625 625 624 624 624 624 624 624 624 624 624 624 624 624 625 625 625 625 625 625 625 625 625 625 625 625 626 626 627 627 627 627 628 628 628 627 627 627 627 627 626 625 625 625 624 624 624 624 624 624 624 624 624 625 625 625 626 626 627 627 627 627 627 627 627 627 626 626 625 625 625 625 626 626 626 626 627 627 627 627 627 626 626 626 626 626 626 626 626 626 626 626 626 626 626 627 627 627 627 627 628 628 628 628 628 627 627 627 627 627 626 626 626 626 625 625 625 625 625 625 625 625 625 625 625 625 625 625 625 625 625 625 625 625 625 625 625 625 625 626 626 626 626 626 626 626 626 626 625 625 625 625 625 625 625 626 626 626 626 627 627 627 627 627 627 627 627 627 627 627 627 627 627 627 627 627 627 627 627 627 627 627 627 627 627 627 627 627 627 627 627 627 627 627 627 627 627 627 626 626 626 626 626 626 626 626 626 626 626 626 627 627 627 627 627 627 627 628 628 628 628 628 627 627 627 627 627 627 627 627 627 627 627 627 627 626 626 626 626 625 625 625 625 625 625 625 626 626 626 626 626 626 627 627 627 627 627 627 627 627 627 627 626 626 626 625 625 625 625 625 625 625 625 625 624 624 624 625 625 625 625 626 627 627 627 627 627 627 627 627 627 627 627 627 627 626 626 626 625 625 625 625 625 625 625 625 625 625 625 625 625 625 625 625 625 625 625 625 625 625 625 625 625 625 625 625 625 625 625 625 625 625 625 625 625 625 625 625 625 624 624 624 624 624 624 624 624 624 624 624 624 624 624 624 625 625 625 625 625 625 625 625 624 624 624 623 623 622 622 622 622 622 622 622 622 622 622 622 622 622 622 622 622 622 622 622 623 623 622 622 622 622 622 622 621 621 621 621 621 620 620 620 620 620 620 621 621 621 620 620 620 620 619 619 619 619 619 619 620 621 621 621 622 622 622 622 622 621 621 621 0 0 0 0 0 0 0 0 0 0 0 0 0 0 0 0 0 0 0 0 0 0 0 0 0 0 0
0 0 0 0 624 624 625 625 625 625 625 625 625 625 625 625 625 625 625 625 624 624 624 624 623 623 623 623 622 622 622 622 622 623 623 624 624 624 624 624 624 624 624 624 624 624 624 624 624 625 625 625 626 626 627 627 627 627 627 627 627 626 625 625 625 624 624 624 623 623 623 623 623 623 624 624 624 624 625 625 625 625 626 626 626 626 626 626 625 625 625 625 625 625 625 625 625 625 625 625 625 625 625 625 625 625 625 625 625 625 625 625 625 625 625 625 625 625 625 626 626 626 626 627 627 627 627 627 627 627 626 626 625 625 625 625 625 625 625 625 625 625 625 624 624 624 624 624 624 624 624 624 624 624 624 624 624 624 624 625 625 625 625 625 625 625 625 625 625 625 625 625 625 625 625 625 625 625 625 625 625 625 625 625 625 626 626 626 626 626 626 626 626 626 626 626 626 626 626 627 627 627 627 627 627 627 627 627 627 627 626 626 626 626 626 626 626 626 625 625 625 625 625 625 625 625 625 625 625 625 625 625 625 625 625 626 626 626 627 627 627 627 627 627 627 627 627 627 627 627 626 626 626 626 626 626 625 625 625 625 625 625 625 625 625 625 625 625 625 625 625 625 625 625 625 625 626 626 626 626 626 626 626 626 625 625 625 625 625 625 625 625 625 624 624 624 624 624 624 624 624 624 625 625 625 626 626 627 627 627 627 627 626 626 626 626 626 625 625 625 625 625 625 625 625 625 625 625 625 625 625 625 625 625 625 625 625 625 625 625 625 625 625 625 625 625 625 625 625 625 625 625 625 625 625 625 625 624 624 624 624 624 624 624 623 623 623 623 623 623 623 623 623 623 624 624 624 624 624 624 624 625 624 624 624 624 623 622 622 622 622 621 621 621 621 622 622 622 622 622 622 621 621 621 622 622 622 622 622 622 622 622 621 621 621 621 621 621 620 620 619 619 619 619 619 619 619 619 619 619 619 619 619 619 619 619 618 618 618 618 619 619 619 620 620 621 621 621 621 621 621 620 619 0 0 0 0 0 0 0 0 0 0 0 0 0 0 0 0 0 0 0 0 0 0 0 0 0 0 0
0 0 0 0 623 624 624 624 624 624 624 624 624 624 624 624 624 624 624 624 623 623 622 622 622 622 622 622 622 622 622 622 622 622 622 622 623 623 624 624 624 623 623 623 623 623 623 623 624 624 624 624 625 625 625 626 626 626 626 626 625 625 625 624 624 624 623 622 622 622 622 622 622 622 622 623 623 624 624 624 625 625 625 625 625 625 625 625 624 624 624 624 624 624 624 624 624 625 625 625 625 625 625 625 625 625 625 625 625 625 625 625 625 625 625 625 625 625 625 625 625 625 625 625 625 625 625 625 625 625 625 625 625 625 624 624 624 624 624 624 624 624 624 624 624 624 624 624 624 623 623 623 623 623 623 623 624 624 624 624 624 624 624 624 624 624 624 624 624 624 624 624 624 624 624 624 624 624 624 624 624 624 625 625 625 625 625 625 625 625 625 625 625 625 625 625 625 625 625 625 625 626 626 626 626 626 626 626 626 626 625 625 625 625 625 625 625 625 625 625 625 625 625 625 625 624 624 624 624 624 624 624 625 625 625 625 625 625 626 626 626 626 626 626 626 626 626 626 626 626 625 625 625 625 625 625 625 625 625 625 624 624 624 624 624 624 624 624 624 624 625 625 625 625 625 625 625 625 625 625 625 625 625 625 625 625 624 624 624 624 624 624 624 624 624 624 624 623 623 623 623 624 624 624 625 625 625 626 626 626 626 626 625 625 625 625 625 625 625 625 624 624 624 624 624 624 624 624 624 624 624 624 624 624 624 624 624 624 624 624 624 624 624 624 624 624 624 624 624 624 624 624 624 624 624 624 624 624 623 623 623 623 622 622 622 622 622 622 622 622 622 622 622 622 622 622 623 623 624 624 624 624 624 624 623 623 622 622 621 621 621 621 621 621 621 621 621 621 621 621 621 621 621 621 621 621 621 621 621 621 621 621 621 620 620 620 620 619 619 619 619 619 618 618 618 618 618 619 619 619 619 619 618 618 618 618 618 618 618 618 618 618 618 619 619 619 620 620 620 620 620 619 619 619 0 0 0 0 0 0 0 0 0 0 0 0 0 0 0 0 0 0 0 0 0 0 0 0 0 0
0 0 0 0 622 622 623 623 624 624 624 624 624 624 624 624 623 623 623 622 622 622 621 621 621 621 621 621 621 621 621 621 621 621 622 622 622 622 622 623 622 622 622 622 622 622 622 622 622 623 624 624 624 625 625 625 625 625 625 625 625 624 624 624 623 622 622 622 622 621 621 621 621 622 622 622 622 623 623 624 624 624 624 624 624 624 624 624 624 623 623 623 623 623 623 623 624 624 624 624 624 624 624 624 624 624 624 624 624 624 624 624 624 624 624 624 624 624 624 624 624 624 624 625 625 625 625 625 625 624 624 624 624 624 624 624 624 624 624 623 623 623 623 623 623 623 623 623 622 622 622 622 622 622 622 622 622 622 623 623 623 623 623 624 624 624 624 624 624 623 623 623 623 623 623 623 623 623 623 624 624 624 624 624 624 624 624 624 624 624 624 624 624 624 624 624 624 625 625 625 625 625 625 625 625 625 625 625 625 625 625 625 625 625 625 625 624 624 624 624 624 624 624 624 624 624 624 624 623 623 624 624 624 624 624 624 625 625 625 625 625 625 625 625 625 625 625 625 625 625 625 625 625 625 624 624 624 624 624 624 624 624 624 624 624 624 624 624 624 624 624 624 624 624 624 624 624 624 624 624 624 624 624 624 624 624 624 624 623 623 623 623 623 623 623 623 622 622 622 622 622 623 624 624 624 624 625 625 625 625 625 625 625 625 625 624 624 624 624 624 624 623 623 623 623 623 623 623 623 623 623 623 623 623 623 623 623 623 623 623 623 623 623 623 623 623 623 623 623 623 623 623 623 623 623 623 623 622 622 622 622 622 622 621 621 621 621 621 621 621 621 621 622 622 622 622 622 622 622 623 623 623 623 622 622 622 621 621 621 620 620 620 619 619 620 619 619 619 619 619 619 619 619 619 619 620 620 620 620 620 620 619 619 619 619 619 619 619 618 618 618 618 618 618 618 618 618 618 618 618 618 618 618 618 617 617 616 616 616 616 616 617 617 618 618 619 619 619 619 619 619 619 618 617 0 0 0 0 0 0 0 0 0 0 0 0 0 0 0 0 0 0 0 0 0 0 0 0 0 0
0 0 0 0 621 621 622 622 622 622 622 622 622 622 622 622 622 622 622 622 621 621 621 620 620 619 619 619 619 619 619 620 620 621 621 621 621 622 622 622 622 622 621 621 621 621 621 621 621 622 622 623 624 624 624 624 625 624 624 624 624 624 623 622 622 622 621 621 621 621 621 621 621 621 621 621 622 622 622 622 622 623 623 623 623 623 622 622 622 622 622 622 622 622 622 622 622 622 623 623 623 623 623 623 623 623 623 623 623 623 623 623 623 623 623 623 623 623 623 623 623 623 623 624 624 624 624 624 624 624 624 624 623 623 623 623 623 623 622 622 622 622 622 622 622 622 622 622 622 622 622 622 622 622 622 622 622 622 622 622 622 622 622 622 622 622 622 622 622 622 622 622 622 622 622 622 622 622 622 622 623 623 623 623 623 624 624 624 624 624 624 624 624 624 624 624 624 624 624 624 624 624 624 624 625 625 625 625 625 625 624 624 624 624 624 624 624 624 624 624 624 623 623 623 623 623 622 622 622 622 622 622 623 623 623 624 624 624 624 624 624 624 624 624 624 624 624 624 624 624 624 624 624 624 624 624 624 623 623 623 623 623 622 622 622 622 622 622 623 623 623 623 623 623 623 623 623 623 624 624 624 623 623 623 623 623 622 622 622 622 622 622 622 622 622 622 622 622 622 622 622 622 622 623 624 624 624 624 624 624 624 624 624 624 624 624 624 623 623 622 622 622 622 622 622 622 622 622 622 622 622 622 622 622 622 622 622 622 622 622 622 622 622 622 622 622 622 622 622 622 622 622 622 622 622 622 622 622 621 621 621 621 621 621 621 621 621 621 621 621 621 621 621 621 621 621 621 621 622 622 622 622 622 622 621 621 621 620 619 619 619 619 619 619 619 619 618 618 618 618 618 618 618 618 618 619 619 619 619 619 619 619 618 618 618 618 618 618 618 618 617 617 617 616 616 616 616 616 617 617 617 617 617 616 616 616 616 615 615 615 615 616 616 617 617 618 618 618 618 618 618 618 618 617 617 0 0 0 0 0 0 0 0 0 0 0 0 0 0 0 0 0 0 0 0 0 0 0 0 0
0 0 0 0 620 621 621 621 621 622 622 622 622 622 622 622 621 621 621 621 620 620 619 619 619 619 618 618 618 618 619 619 619 619 620 620 621 621 621 621 621 621 621 620 620 620 620 620 621 621 622 622 622 623 623 624 624 624 623 623 623 622 622 622 621 621 621 620 620 620 619 619 620 620 620 621 621 621 621 621 622 622 622 622 622 622 621 621 621 621 621 621 621 621 621 621 621 621 622 622 622 622 622 622 622 622 622 622 622 622 622 622 622 622 622 622 622 622 622 622 622 622 622 622 622 622 622 623 623 623 622 622 622 622 622 622 622 622 622 622 622 622 622 622 621 621 621 621 621 621 621 621 621 621 621 621 621 621 621 621 621 621 621 621 621 622 622 622 622 622 621 621 621 621 621 621 621 621 622 622 622 622 622 622 622 622 622 622 622 622 623 623 623 623 623 623 623 623 623 623 623 624 624 624 624 624 624 624 624 624 624 624 623 623 623 623 622 622 622 622 622 622 622 622 622 622 622 622 621 621 621 622 622 622 622 622 623 623 623 623 624 624 624 624 624 624 623 623 623 623 623 623 623 622 622 622 622 622 622 622 622 622 622 622 622 622 622 622 622 622 622 622 622 622 622 622 622 622 622 622 622 622 622 622 622 622 622 621 621 621 621 621 621 621 621 621 621 621 621 621 621 621 622 622 622 623 623 624 624 624 624 624 624 623 623 623 622 622 622 622 621 621 621 621 621 621 621 621 621 621 621 621 621 622 621 621 621 621 621 621 621 621 621 621 621 621 621 621 621 621 621 621 621 621 621 621 621 621 621 620 620 619 619 619 619 619 619 619 619 620 620 620 620 620 620 620 621 621 621 621 621 621 621 621 620 620 619 619 619 618 618 618 618 618 618 618 618 617 617 617 617 617 617 617 618 618 618 618 618 618 618 618 618 617 617 617 617 617 616 616 616 616 616 616 616 616 616 616 616 616 616 616 616 616 616 615 615 615 615 615 615 615 615 616 616 616 616 617 617 617 617 616 616 616 616 0 0 0 0 0 0 0 0 0 0 0 0 0 0 0 0 0 0 0 0 0 0 0 0 0
0 0 0 0 619 619 620 620 620 621 621 621 621 621 621 621 621 621 620 620 619 619 618 618 618 618 618 617 617 618 618 618 618 619 619 619 619 620 620 620 620 620 619 619 619 619 619 619 620 620 621 621 622 622 622 622 622 622 622 622 622 621 621 621 620 620 620 619 619 619 619 619 619 619 619 619 619 620 620 621 621 621 621 621 621 621 620 620 619 619 619 619 619 620 620 620 620 621 621 621 621 621 621 621 621 621 621 621 621 621 621 621 621 621 621 621 621 621 621 621 621 621 621 621 621 621 621 622 622 622 622 622 622 622 622 622 621 621 621 621 621 621 621 621 621 621 621 621 621 621 620 620 620 620 620 620 620 620 620 620 620 620 621 621 621 621 621 621 621 621 621 621 621 621 621 621 621 621 621 621 621 621 621 621 621 621 622 622 622 622 622 622 622 622 622 622 622 622 622 622 622 622 623 623 623 623 623 623 623 623 623 622 622 622 622 622 622 622 621 621 621 621 621 621 621 621 621 621 621 621 621 621 621 621 621 622 622 622 622 622 622 622 622 622 622 622 622 622 622 622 622 622 622 622 622 622 621 621 621 621 621 621 621 621 621 621 621 621 621 621 621 621 621 621 621 621 621 621 621 621 621 621 621 621 621 621 621 621 620 620 620 621 621 621 621 621 621 621 621 621 621 621 621 621 621 622 622 622 622 622 622 622 622 622 622 622 621 621 621 621 620 620 619 619 619 619 619 620 620 620 621 621 621 621 621 621 621 621 621 621 621 621 621 621 621 621 621 621 621 620 620 620 620 621 621 621 620 620 620 619 619 619 619 619 618 618 619 619 619 619 619 619 619 619 619 619 619 620 620 620 620 620 620 619 619 619 618 618 618 617 617 617 616 616 616 616 616 616 616 616 616 616 616 616 616 616 616 616 616 616 616 616 616 616 616 616 616 616 616 616 615 615 615 615 615 615 615 615 615 615 615 615 615 615 615 615 615 614 614 614 614 614 615 615 615 615 615 616 616 616 616 616 615 615 615 0 0 0 0 0 0 0 0 0 0 0 0 0 0 0 0 0 0 0 0 0 0 0 0 0
0 0 0 0 618 619 619 619 619 619 619 619 620 620 620 620 620 619 619 619 619 618 618 618 617 617 616 616 616 616 617 617 618 618 618 618 619 619 619 619 619 619 619 618 618 618 618 619 619 619 619 620 621 621 621 621 621 621 621 621 621 621 620 620 619 619 619 619 619 618 618 618 618 618 618 618 619 619 619 619 620 620 619 619 619 619 619 618 618 618 618 618 618 619 619 619 619 619 620 620 620 621 621 621 621 621 620 620 620 620 620 620 620 620 621 621 621 620 620 620 620 620 620 620 620 620 620 621 621 621 621 621 621 621 621 621 621 620 620 620 620 620 619 619 619 619 619 619 619 619 619 619 619 619 619 619 619 619 619 619 619 619 619 619 619 619 619 619 620 620 620 620 619 619 619 619 619 619 619 619 620 620 620 620 621 621 621 621 621 621 621 621 621 621 621 621 621 621 621 621 622 622 622 622 622 622 622 622 622 622 622 621 621 621 621 621 621 621 621 621 621 621 621 620 620 620 620 620 619 619 619 620 620 620 621 621 621 621 621 621 621 621 621 621 621 621 621 621 621 621 621 621 621 621 621 621 621 621 620 620 620 620 620 620 620 620 620 620 620 619 619 619 619 619 619 619 619 619 619 620 620 620 620 620 619 619 619 619 619 619 619 619 619 619 619 620 620 620 620 620 619 620 620 620 621 621 621 621 622 622 621 621 621 621 621 621 620 620 620 619 619 619 618 618 618 618 618 619 619 619 619 619 619 620 620 619 619 619 619 619 619 620 620 620 620 620 620 619 619 619 619 619 619 619 619 619 619 619 619 618 618 618 618 618 618 618 618 618 618 618 618 618 618 618 619 619 619 619 619 619 619 619 619 619 619 618 618 617 617 616 616 616 616 616 616 615 615 615 615 615 615 615 615 615 615 615 615 615 615 615 615 615 615 615 615 615 615 615 615 615 615 615 614 614 613 613 613 614 614 614 615 615 615 615 615 615 614 613 613 613 613 613 613 613 614 614 614 615 615 615 615 615 614 614 614 0 0 0 0 0 0 0 0 0 0 0 0 0 0 0 0 0 0 0 0 0 0 0 0 0
0 0 0 0 618 618 618 618 618 618 619 619 619 619 619 619 619 619 618 618 618 617 617 616 616 616 616 616 616 616 616 616 616 616 617 618 618 618 618 618 618 618 618 618 618 617 617 618 618 618 619 619 619 619 620 619 619 619 619 619 619 619 619 619 618 618 618 618 618 618 618 617 617 618 618 618 618 618 618 619 619 619 618 618 618 618 618 617 617 617 617 617 617 618 618 618 618 618 619 619 619 619 619 619 619 619 619 619 619 619 619 619 619 619 619 619 619 619 619 619 619 619 619 619 619 619 619 619 619 620 620 620 620 620 620 620 619 619 619 619 619 619 619 619 619 619 619 619 619 619 619 619 618 618 618 618 618 618 618 618 618 618 618 618 618 619 619 619 619 619 619 619 619 619 619 619 619 619 619 619 619 619 619 619 620 620 620 620 620 621 621 621 621 621 621 621 620 620 620 621 621 621 621 621 621 621 621 621 621 621 621 621 620 620 620 620 619 619 619 619 619 620 619 619 619 619 619 619 619 619 619 619 619 619 619 619 619 620 620 620 619 619 619 619 619 619 619 619 619 619 619 619 619 619 619 619 619 619 619 619 619 619 619 619 619 619 619 619 619 619 619 619 619 618 618 618 618 619 619 619 619 619 619 619 618 618 618 618 618 618 618 618 618 619 619 619 619 619 619 619 619 619 619 619 619 619 620 620 621 621 620 620 620 620 619 619 619 619 619 618 618 618 617 617 617 617 618 618 618 618 618 619 619 619 619 619 619 619 619 619 619 619 619 619 619 619 619 619 619 619 619 619 619 619 619 618 618 618 618 618 617 617 617 617 617 617 617 617 617 618 618 618 618 618 618 618 618 618 618 618 618 618 618 618 618 617 617 616 616 616 615 615 615 615 615 615 615 614 614 614 614 614 614 614 615 615 615 615 615 615 615 615 615 614 615 615 615 615 614 614 614 613 613 613 613 613 613 613 613 613 613 614 614 614 614 614 613 613 613 613 613 613 613 613 613 613 613 613 613 613 613 613 613 613 613 613 0 0 0 0 0 0 0 0 0 0 0 0 0 0 0 0 0 0 0 0 0 0 0 0
0 0 0 0 616 616 617 617 618 618 618 618 618 618 618 618 618 618 618 617 616 616 616 616 615 615 615 615 615 615 615 615 615 616 616 616 617 617 617 617 617 617 616 616 616 616 616 617 617 618 618 618 618 619 618 618 618 618 618 618 618 618 618 618 618 617 617 617 617 617 617 616 616 616 617 617 617 617 618 618 618 617 617 617 617 616 616 616 616 616 616 616 616 616 616 617 617 618 618 618 618 618 618 618 619 618 618 618 618 618 618 618 619 619 619 619 619 619 618 618 618 618 618 618 618 618 618 618 619 619 619 619 619 619 619 619 619 619 618 618 618 618 618 618 618 618 618 618 618 618 618 618 618 618 618 618 618 618 618 618 618 617 617 618 618 618 618 618 618 618 618 618 618 618 618 618 618 618 618 618 618 619 619 619 619 619 619 619 619 619 619 619 619 619 619 619 619 619 619 619 619 619 619 619 620 620 620 620 620 620 619 619 619 619 619 619 619 619 619 619 619 619 619 619 618 618 618 618 618 618 618 618 618 618 618 618 619 619 619 619 618 618 618 618 618 618 618 618 618 618 618 618 618 618 618 618 618 618 618 618 618 618 618 618 618 618 618 618 618 618 618 618 618 618 618 618 618 618 618 618 618 618 618 618 618 617 617 617 617 617 617 617 618 618 618 618 618 618 618 619 618 618 618 618 619 619 619 619 619 619 619 619 619 619 619 618 618 618 618 617 617 616 616 616 616 616 616 616 617 617 618 618 618 618 618 618 618 618 618 618 618 618 618 618 618 618 618 618 618 618 618 618 618 618 618 618 617 617 616 616 616 616 616 616 616 616 616 616 616 616 617 617 617 617 618 618 618 617 617 617 617 617 617 617 616 616 616 615 615 615 615 614 614 614 614 614 613 613 613 613 613 613 613 613 613 613 613 613 613 613 613 613 613 613 613 613 614 614 613 613 613 613 612 612 612 612 612 612 612 612 613 613 613 613 613 613 613 613 612 612 612 612 612 612 612 612 612 612 612 612 612 612 612 612 612 612 0 0 0 0 0 0 0 0 0 0 0 0 0 0 0 0 0 0 0 0 0 0 0 0
0 0 0 0 615 615 616 616 616 616 616 617 617 617 617 617 617 617 617 616 616 616 615 615 615 615 615 614 614 614 615 615 615 615 615 616 616 616 616 616 616 616 616 615 615 616 616 616 616 616 617 618 618 618 617 617 617 617 617 617 616 616 616 616 616 616 616 616 616 616 616 616 616 616 616 616 616 616 616 616 616 616 616 616 615 615 615 615 615 615 615 615 615 615 615 616 616 616 617 617 617 617 618 618 618 618 618 617 617 617 618 618 618 618 618 618 618 618 618 617 617 616 616 616 616 616 617 617 618 618 618 618 618 618 618 618 618 618 618 617 617 617 617 617 617 617 617 617 617 617 617 617 617 617 617 617 617 616 616 616 616 616 616 616 616 616 617 617 617 618 618 618 617 617 617 617 617 617 617 618 618 618 618 618 618 618 618 618 618 618 618 619 619 619 619 618 618 618 618 618 618 618 618 619 619 619 619 619 619 619 619 618 618 618 618 618 618 618 618 618 618 618 618 618 618 618 617 617 616 616 616 617 617 617 618 618 618 618 618 618 617 617 617 617 617 617 617 617 617 617 617 617 617 617 617 617 617 617 617 618 618 618 618 618 618 617 617 617 617 617 617 616 616 616 616 616 616 616 616 616 616 616 616 616 616 616 616 616 616 616 616 616 616 617 617 617 618 618 618 618 618 618 618 618 618 618 618 618 618 618 618 618 618 618 618 617 616 616 616 616 616 615 615 615 615 615 615 615 616 616 616 617 617 618 618 618 618 618 618 617 617 617 617 617 617 617 617 617 617 617 617 617 617 617 616 616 616 616 616 615 615 615 615 615 615 615 615 615 616 616 616 616 616 616 616 616 616 616 616 616 616 616 616 616 616 615 615 615 615 614 613 613 613 613 613 613 613 613 613 613 613 613 613 613 613 613 613 613 613 613 613 613 613 613 613 613 613 613 613 613 612 612 612 611 611 611 611 611 611 612 612 612 612 613 612 612 612 612 612 612 611 611 611 611 611 611 611 611 611 611 611 611 611 611 611 611 0 0 0 0 0 0 0 0 0 0 0 0 0 0 0 0 0 0 0 0 0 0 0 0
0 0 0 0 615 615 615 615 615 615 616 616 616 616 616 616 616 616 616 616 615 615 615 615 614 614 614 613 613 613 614 614 614 615 615 615 615 615 615 615 615 615 615 615 615 615 615 615 616 616 616 616 616 616 616 616 616 616 616 615 615 615 615 615 615 615 615 615 616 615 615 615 615 615 615 615 615 615 615 615 615 615 615 615 614 614 613 613 613 613 613 613 614 614 615 615 615 615 616 616 616 616 616 616 617 616 616 616 616 616 616 617 617 617 617 617 617 617 616 616 616 615 615 615 615 615 616 616 616 617 618 618 618 618 618 618 618 617 617 616 616 616 616 616 616 616 616 616 616 616 616 616 616 616 616 616 616 616 616 616 616 616 616 616 616 616 616 616 616 616 616 616 616 616 616 616 616 616 616 616 616 617 617 617 617 617 617 617 618 618 618 618 618 618 618 618 618 617 617 617 617 617 617 618 618 618 618 618 618 618 618 617 616 616 616 616 616 616 616 616 616 617 617 617 616 616 616 616 616 616 616 616 616 616 616 616 617 617 616 616 616 616 616 616 616 616 616 616 616 616 616 616 616 616 616 616 616 616 616 616 616 616 616 616 616 616 616 616 616 616 616 616 616 616 616 616 616 616 616 616 616 616 615 615 615 615 615 615 615 615 615 615 616 616 616 616 616 617 617 617 617 617 617 616 616 616 617 617 617 617 617 617 617 617 616 616 616 615 615 615 615 615 614 614 614 614 614 615 615 615 616 616 616 616 617 617 617 617 616 616 616 616 616 616 616 616 616 616 616 616 616 616 616 616 616 616 615 615 615 615 615 615 614 614 614 615 615 615 615 615 615 616 616 616 616 616 615 615 615 615 615 615 615 615 615 614 614 613 613 613 613 613 613 612 612 612 612 612 612 612 612 612 612 612 612 612 612 612 612 612 612 612 612 612 612 612 612 612 612 612 612 612 611 610 610 610 610 610 610 610 611 612 612 612 612 612 612 611 611 611 610 610 610 610 610 610 610 610 610 610 610 610 610 610 610 610 0 0 0 0 0 0 0 0 0 0 0 0 0 0 0 0 0 0 0 0 0 0 0 0
0 0 0 0 613 614 614 614 615 615 615 615 615 616 616 616 616 616 615 615 615 615 614 614 613 613 613 613 613 613 613 613 613 614 614 614 615 615 615 614 614 614 614 614 614 614 614 615 615 615 615 615 615 615 615 615 615 614 614 614 614 614 614 615 615 615 615 615 615 615 615 615 615 615 615 615 615 615 615 615 614 614 614 613 613 613 613 612 612 612 613 613 613 613 614 614 615 615 615 615 615 616 616 616 616 616 616 616 615 615 616 616 616 616 616 616 616 616 616 615 615 615 614 614 615 615 615 615 616 616 616 617 617 617 617 617 616 616 616 616 615 615 615 615 615 615 615 615 615 615 615 615 615 615 615 615 615 615 615 615 615 615 615 615 615 615 615 615 615 616 616 616 616 615 615 615 615 616 616 616 616 616 616 616 616 616 616 616 616 616 617 617 617 617 617 617 616 616 616 616 616 616 616 616 616 616 616 616 616 616 616 616 616 615 615 615 615 615 615 616 616 616 616 616 616 616 616 615 615 615 615 615 615 616 616 616 616 616 616 615 615 615 615 615 615 615 615 615 615 615 615 615 615 615 615 615 615 616 616 616 616 616 616 616 616 616 615 615 615 615 615 615 615 615 615 615 615 615 615 615 615 615 615 615 615 614 614 614 614 614 614 614 615 615 615 616 616 616 616 616 616 616 616 616 616 616 616 616 616 616 616 616 616 616 615 615 615 615 614 614 614 613 613 613 613 613 613 614 614 615 615 615 615 616 616 616 616 616 616 616 615 615 615 615 615 615 615 615 615 616 616 615 615 615 615 615 615 615 614 614 614 613 613 613 613 613 614 614 614 615 615 615 615 615 615 615 615 615 615 614 614 614 614 614 613 613 613 613 613 612 612 612 612 612 612 612 611 611 611 611 611 611 611 611 611 611 611 611 611 611 611 611 611 611 612 612 612 612 611 611 611 610 610 609 609 609 609 609 610 610 610 610 611 611 611 611 611 610 610 610 610 609 609 609 609 609 609 609 609 609 609 609 609 609 609 609 0 0 0 0 0 0 0 0 0 0 0 0 0 0 0 0 0 0 0 0 0 0 0 0
0 0 0 0 613 613 613 613 613 613 614 614 615 615 615 615 615 615 615 615 614 614 613 613 613 613 613 613 613 613 613 613 613 613 613 613 613 613 613 613 613 613 613 613 613 613 613 614 615 615 615 615 615 615 614 613 613 613 613 613 613 613 613 613 613 614 614 614 614 614 614 614 614 614 614 614 613 613 613 613 613 613 613 613 612 612 612 612 612 612 612 612 612 613 613 613 613 614 614 615 615 615 615 615 615 615 615 615 615 615 615 615 615 615 615 615 615 615 615 615 614 614 613 613 613 613 614 615 615 615 616 616 616 616 616 616 616 615 615 615 615 614 614 614 614 614 614 614 614 614 614 615 615 615 615 615 615 615 615 615 614 614 614 614 614 614 614 615 615 615 615 615 615 615 615 615 615 615 615 615 615 615 615 615 615 615 615 615 615 616 616 616 616 616 616 616 616 615 615 615 615 615 615 615 615 615 615 615 615 615 615 615 615 615 614 615 615 615 615 615 615 615 615 615 615 615 615 615 614 614 614 615 615 615 615 615 615 615 615 615 614 614 613 613 613 613 614 614 614 614 614 614 614 614 615 615 615 615 615 615 615 615 615 615 615 615 615 615 615 614 614 614 614 614 614 614 614 614 614 614 614 614 614 614 613 613 613 613 613 613 613 613 613 614 615 615 615 615 615 615 615 615 615 615 615 615 615 615 615 615 615 615 615 615 615 614 614 613 613 613 613 613 613 612 612 613 613 613 613 613 614 615 615 615 615 615 615 615 615 615 615 615 615 615 615 615 615 615 615 615 615 615 615 615 614 614 614 613 613 613 613 613 613 613 613 613 613 613 613 614 614 614 614 614 614 614 613 613 613 613 613 613 613 613 613 612 612 612 612 612 612 611 611 611 611 610 610 610 610 610 610 610 610 610 610 610 610 610 610 610 610 610 610 610 611 611 611 610 610 610 610 610 609 609 609 609 609 609 609 609 609 610 610 610 610 610 610 610 610 609 609 609 609 608 608 608 608 608 608 608 608 608 608 609 608 608 609 0 0 0 0 0 0 0 0 0 0 0 0 0 0 0 0 0 0 0 0 0 0 0
0 0 0 0 612 612 612 612 613 613 613 613 613 614 614 614 614 614 614 613 613 613 613 612 612 612 612 612 612 612 612 612 612 613 613 613 613 613 613 613 613 612 612 612 612 612 613 613 613 613 613 613 613 613 613 613 612 612 612 612 612 612 612 612 613 613 613 613 613 613 613 613 613 613 613 613 613 613 613 613 613 612 612 612 611 611 611 611 611 611 612 612 612 612 612 613 613 613 613 613 614 614 614 614 614 614 614 614 614 614 614 614 614 615 615 615 615 614 614 613 613 613 613 613 613 613 613 613 614 615 615 615 615 615 615 615 615 615 614 614 613 613 613 613 613 613 613 613 613 613 613 613 613 613 614 614 614 614 614 614 613 613 613 613 613 613 613 613 614 614 614 614 614 614 614 614 614 614 614 614 614 614 614 614 614 614 615 615 615 615 615 615 615 615 615 615 615 615 614 614 614 614 614 614 614 614 614 614 614 614 613 613 613 613 613 613 613 613 613 614 614 614 614 614 614 614 614 613 613 613 613 614 614 615 615 615 614 614 614 613 613 613 613 613 613 613 613 613 613 613 613 613 613 613 613 614 614 614 614 615 615 615 614 614 614 614 614 614 613 613 613 613 613 613 613 613 613 613 613 613 613 613 613 613 613 613 612 612 612 612 612 612 613 613 613 613 614 614 615 615 615 614 614 614 614 614 614 614 614 614 614 614 614 614 613 613 613 613 613 612 612 612 612 612 612 612 612 612 612 613 613 613 614 615 615 615 615 614 614 614 613 613 613 613 613 613 613 613 613 614 614 614 614 613 613 613 613 613 613 612 612 612 612 612 612 612 612 612 613 613 613 613 613 613 613 613 613 613 612 612 612 612 612 612 612 612 612 612 611 611 611 610 610 610 610 610 610 610 609 609 609 609 610 610 610 610 610 610 610 610 610 610 610 610 610 610 610 610 610 610 609 609 608 608 608 608 608 608 608 609 609 609 610 610 610 610 609 609 609 609 609 608 607 607 607 607 607 607 607 607 607 607 607 607 607 607 607 0 0 0 0 0 0 0 0 0 0 0 0 0 0 0 0 0 0 0 0 0 0 0
0 0 0 0 611 611 612 612 612 612 612 612 613 613 613 613 613 613 613 613 613 612 612 612 612 612 612 612 612 612 612 612 612 612 612 612 612 612 612 612 612 612 612 612 612 612 612 612 612 613 613 613 613 612 612 612 612 611 610 610 610 611 611 611 612 612 612 612 612 612 612 612 612 612 612 612 612 612 612 612 612 612 611 611 610 610 610 610 610 610 610 611 611 612 612 612 612 612 613 613 613 613 613 613 613 613 613 613 613 613 613 613 613 613 613 613 613 613 613 613 613 612 612 612 612 612 612 613 613 613 614 614 615 615 615 614 614 613 613 613 613 612 612 612 612 612 612 612 612 612 612 613 613 613 613 613 613 613 613 613 613 613 612 612 612 612 612 613 613 613 613 613 613 613 613 613 613 613 613 613 613 613 613 613 613 613 613 613 613 613 614 614 614 614 614 614 613 613 613 613 613 613 613 613 613 613 613 613 613 613 613 613 613 613 613 612 613 613 613 613 613 613 613 613 613 613 613 613 613 613 613 613 613 613 613 613 613 613 613 613 612 612 612 612 612 612 612 612 612 612 612 613 613 613 613 613 613 613 613 613 614 613 613 613 613 613 613 613 613 613 613 612 612 612 612 612 612 612 612 612 612 612 612 612 612 612 612 612 612 612 612 612 612 612 612 613 613 613 613 613 613 613 613 613 613 613 613 613 613 613 613 613 613 613 613 613 612 612 612 612 611 611 611 611 611 611 611 612 612 612 612 613 613 613 613 613 613 613 613 613 613 613 613 612 613 613 613 613 613 613 613 613 613 613 613 612 612 612 612 612 612 611 611 611 611 611 612 612 612 612 612 612 612 612 612 612 612 612 612 611 611 611 611 611 611 610 610 610 610 610 610 610 610 610 609 609 609 609 609 609 609 609 609 609 609 609 609 609 609 609 609 609 609 609 609 609 609 609 609 609 609 608 607 607 607 607 607 607 607 607 608 609 609 609 609 609 609 609 608 608 607 607 607 607 606 606 606 606 606 606 606 606 606 607 607 606 607 0 0 0 0 0 0 0 0 0 0 0 0 0 0 0 0 0 0 0 0 0 0 0
0 0 0 0 610 610 610 610 611 611 611 612 612 612 612 612 612 612 612 612 612 612 611 611 611 611 611 611 611 611 612 612 612 612 612 612 611 611 611 611 611 610 610 610 610 610 611 611 612 612 612 612 612 612 611 611 610 610 610 610 610 610 610 610 610 611 611 612 612 612 612 612 611 611 611 611 611 611 611 611 611 610 610 610 610 610 610 610 610 610 610 610 610 611 611 612 612 612 612 612 613 613 613 613 613 612 612 612 612 612 612 612 613 613 613 613 613 612 612 612 612 611 611 611 611 611 612 612 612 613 613 613 613 613 613 613 613 613 612 612 612 612 611 611 611 611 611 611 611 611 612 612 612 612 612 612 613 612 612 612 612 612 612 612 612 612 612 612 612 612 612 612 612 612 612 612 612 612 612 612 612 612 612 612 612 612 612 612 613 613 613 613 613 613 613 613 612 612 612 612 612 612 612 612 612 612 612 612 612 612 612 612 612 612 612 612 612 612 612 612 612 612 612 612 612 612 612 612 612 612 612 612 613 613 613 613 612 612 612 612 611 611 611 611 611 611 611 611 612 612 612 612 612 612 612 613 613 613 613 613 613 613 613 613 613 612 612 612 612 612 612 612 612 612 612 612 612 612 612 612 612 612 611 611 611 611 610 610 610 610 610 610 611 611 611 612 612 612 613 613 613 613 612 612 612 612 612 612 612 612 612 612 612 612 612 612 612 611 611 610 610 610 610 610 610 610 610 611 611 611 612 612 612 613 613 613 613 612 612 612 612 612 612 612 612 612 612 612 612 612 612 612 612 612 612 612 612 611 611 611 610 610 610 610 610 610 610 611 611 611 612 612 612 611 611 611 611 610 610 610 610 610 610 610 610 610 610 610 610 610 609 609 609 609 609 609 608 608 608 607 607 608 608 608 608 608 608 608 608 608 608 608 609 609 609 609 609 609 608 608 607 607 606 606 606 606 606 606 607 607 607 608 609 609 609 608 608 608 607 607 607 606 606 606 606 606 606 606 606 606 606 606 606 606 606 606 605 0 0 0 0 0 0 0 0 0 0 0 0 0 0 0 0 0 0 0 0 0 0 0
0 0 0 0 610 610 610 610 610 610 610 610 611 611 612 612 612 612 612 611 611 611 610 610 610 610 610 610 610 611 611 611 611 611 610 610 610 610 610 610 610 610 610 610 610 610 610 610 610 611 611 611 611 610 610 610 609 609 609 609 609 609 609 609 610 610 610 610 611 611 610 610 610 610 610 610 610 610 610 610 610 610 610 609 609 609 609 609 609 609 609 610 610 610 610 611 611 611 612 612 612 612 612 612 612 612 612 612 611 612 612 612 612 612 612 612 612 612 612 611 611 610 610 610 610 610 610 611 612 612 612 612 613 613 612 612 612 612 612 611 610 610 610 610 610 610 610 610 610 610 610 611 611 611 612 612 612 612 612 612 612 611 611 610 610 610 611 611 611 612 612 612 612 612 612 612 612 612 612 612 612 612 612 612 612 612 612 612 612 612 612 612 612 612 612 612 612 612 612 612 612 612 612 611 611 611 611 611 611 611 611 611 611 611 611 611 611 611 611 611 611 611 612 612 612 612 612 612 612 612 612 612 612 612 612 612 612 612 611 611 610 610 610 610 610 610 610 610 610 611 611 611 611 612 612 612 612 612 612 612 612 612 612 612 612 612 612 612 612 611 611 611 610 610 610 610 610 610 610 610 610 610 610 610 610 610 610 610 610 610 610 610 610 610 610 610 611 611 612 612 612 612 612 612 612 612 612 612 612 612 612 612 612 611 611 611 610 610 610 610 610 610 610 610 610 610 610 610 610 610 611 611 612 612 612 612 612 612 612 611 611 611 611 610 610 610 611 611 611 611 611 611 611 611 611 611 610 610 610 610 610 610 610 609 609 610 610 610 610 610 610 610 610 610 610 610 610 610 610 609 609 609 609 609 609 609 609 609 609 609 609 609 609 608 608 607 607 607 607 607 607 607 607 607 607 607 607 607 607 607 607 607 607 608 608 608 608 607 607 607 606 606 606 606 605 605 606 606 606 606 607 607 608 608 608 607 607 607 607 606 606 606 605 605 605 605 605 605 605 605 605 605 605 605 605 605 605 0 0 0 0 0 0 0 0 0 0 0 0 0 0 0 0 0 0 0 0 0 0 0
0 0 0 0 609 609 609 609 609 609 609 609 610 610 610 610 610 610 610 610 610 610 610 610 610 610 610 610 610 610 610 610 610 610 610 610 610 610 609 609 609 609 609 609 609 609 609 609 610 610 610 610 610 610 609 609 609 608 608 608 608 608 609 609 609 609 609 610 610 610 610 610 610 610 610 610 610 610 610 610 609 609 609 609 609 608 608 608 609 609 609 609 609 610 610 610 610 610 611 611 611 611 611 611 611 610 610 610 610 610 610 611 611 611 611 611 611 611 610 610 610 610 609 609 609 610 610 610 610 611 612 612 612 612 612 611 611 611 610 610 610 609 609 609 609 609 609 609 609 610 610 610 610 610 611 611 611 611 611 611 610 610 610 610 610 610 610 610 610 610 610 611 611 611 611 611 611 611 611 611 611 611 611 611 611 611 611 611 611 611 611 611 611 611 611 611 611 610 610 610 610 610 610 610 610 610 610 610 610 610 610 610 610 610 610 610 610 610 610 610 610 610 610 610 611 611 611 610 610 610 611 611 611 611 611 611 611 610 610 610 610 609 609 609 609 610 610 610 610 610 610 610 610 611 611 611 612 612 612 612 612 612 612 611 611 611 611 611 610 610 610 610 610 610 610 610 610 610 610 610 610 610 609 609 609 609 609 609 609 609 609 609 609 609 609 610 610 610 610 611 611 611 611 611 610 610 610 610 610 610 610 610 610 610 610 610 610 609 609 609 609 609 609 609 609 609 609 609 610 610 610 610 611 611 611 611 611 611 610 610 610 610 610 610 610 610 610 610 610 610 610 610 610 610 610 610 610 610 609 609 609 609 609 609 609 609 609 609 609 609 610 610 610 610 609 609 609 609 609 609 609 609 609 609 609 609 609 609 609 609 608 608 608 607 607 607 606 606 606 606 606 606 606 606 606 606 606 607 607 607 607 607 607 607 607 607 607 607 606 606 606 605 605 605 605 605 605 605 605 606 606 607 607 607 607 607 607 606 606 606 605 605 605 605 605 604 604 604 604 605 605 604 604 605 605 605 605 0 0 0 0 0 0 0 0 0 0 0 0 0 0 0 0 0 0 0 0 0 0 0
0 0 0 0 608 608 608 608 608 608 609 609 609 609 609 610 610 610 610 609 609 609 609 609 609 609 609 609 609 610 610 610 610 609 609 609 609 609 609 609 608 608 608 608 608 608 608 608 609 609 609 609 609 609 609 608 607 607 607 607 607 607 607 608 608 608 609 609 609 609 609 609 609 609 609 609 609 609 609 609 609 609 608 608 607 607 607 607 608 608 608 609 609 609 609 609 610 610 610 610 610 610 610 610 610 610 610 610 610 610 610 610 610 610 610 610 610 610 610 609 609 609 609 609 609 609 609 609 610 610 610 610 610 610 610 610 610 610 610 609 609 609 609 609 609 609 609 609 609 609 609 609 609 610 610 610 610 610 610 610 610 610 609 609 609 609 609 609 609 610 610 610 610 610 610 610 610 610 610 610 610 610 610 610 610 610 610 610 610 610 610 610 610 610 610 610 610 610 610 610 610 610 610 610 609 609 609 609 609 609 609 609 609 609 609 609 609 609 609 609 609 609 610 610 610 610 610 610 610 610 610 610 610 610 610 610 610 610 609 609 609 609 609 609 609 609 609 609 609 609 610 610 610 610 610 611 611 611 611 611 611 611 610 610 610 610 610 610 610 609 609 609 609 609 609 609 609 609 609 609 609 609 609 609 609 609 609 608 608 608 608 608 608 609 609 609 609 609 609 610 610 610 610 610 610 610 610 610 610 610 610 610 610 610 610 609 609 609 609 608 608 608 608 608 608 609 609 609 609 609 609 610 610 610 610 610 610 610 610 610 609 609 609 609 609 609 609 609 609 609 609 609 609 609 609 609 609 609 609 609 608 608 608 608 608 608 608 608 609 609 609 609 609 609 609 609 608 608 608 607 607 607 607 607 607 608 608 608 608 608 607 607 607 607 606 606 606 606 606 606 606 606 606 606 606 606 606 606 606 606 606 606 606 606 606 606 606 606 606 605 605 605 604 604 603 604 604 604 605 605 606 606 606 606 606 606 606 606 605 605 605 604 604 604 603 603 603 603 603 603 603 603 603 603 604 604 603 604 0 0 0 0 0 0 0 0 0 0 0 0 0 0 0 0 0 0 0 0 0 0
0 0 0 0 607 607 607 607 607 607 607 607 608 608 608 609 609 609 609 609 609 608 608 608 608 608 609 609 609 609 609 609 609 609 609 609 608 608 608 607 607 607 607 607 607 607 607 607 607 607 607 608 608 607 607 607 607 606 606 606 606 606 607 607 607 607 608 608 608 608 608 608 608 608 608 608 608 608 608 608 608 608 607 607 607 607 607 607 607 607 607 607 608 608 609 609 609 609 609 609 609 609 609 609 609 609 609 609 609 609 609 609 609 609 609 609 609 609 609 609 609 608 608 608 608 608 609 609 609 609 610 610 610 610 610 610 609 609 609 609 608 608 607 607 607 607 608 608 608 608 609 609 609 609 609 609 610 610 609 609 609 609 609 608 608 608 609 609 609 609 609 609 609 609 609 609 609 609 609 609 609 609 609 609 609 609 609 609 609 609 609 609 609 609 609 609 609 609 609 609 609 609 609 609 609 609 608 608 608 608 608 608 608 608 609 608 608 609 609 609 609 609 609 609 609 609 609 609 609 609 609 609 609 610 610 609 609 609 609 608 608 608 608 608 608 608 608 609 609 609 609 609 609 610 610 610 610 610 610 610 610 610 610 610 610 609 609 609 609 609 609 608 608 608 608 608 608 608 608 608 608 608 608 608 607 607 607 607 607 607 607 607 607 607 607 608 608 608 609 609 609 609 609 609 609 609 609 609 609 609 609 609 609 609 609 609 608 608 607 607 607 607 607 607 607 607 608 608 608 609 609 609 609 609 609 609 609 609 609 609 608 608 608 607 607 607 607 608 608 608 608 609 609 609 609 609 608 608 608 607 607 607 607 607 607 607 607 607 607 607 607 608 608 608 608 607 607 607 607 607 607 607 607 607 607 607 607 607 607 607 607 607 607 606 606 606 605 605 605 605 605 605 605 605 605 605 605 605 606 606 606 606 606 606 606 605 605 605 605 605 604 604 603 603 603 603 603 603 604 605 605 605 606 606 606 605 605 605 604 604 603 603 603 603 603 603 603 603 603 603 603 603 603 603 603 603 603 602 0 0 0 0 0 0 0 0 0 0 0 0 0 0 0 0 0 0 0 0 0 0
0 0 0 0 606 606 606 606 606 606 606 606 607 607 607 607 607 607 607 607 607 607 607 607 607 607 608 608 608 608 609 608 608 608 608 607 607 607 607 607 607 607 606 606 606 606 606 606 606 607 607 607 607 607 606 606 606 606 606 606 606 606 606 606 606 607 607 607 607 607 607 607 607 607 607 607 607 607 607 607 607 607 607 607 606 606 606 606 606 606 607 607 607 607 608 608 608 609 609 609 609 608 608 608 608 608 608 608 608 608 608 608 608 608 608 608 608 608 608 607 607 607 607 607 607 607 607 608 608 608 609 609 609 609 609 609 609 609 608 607 607 607 607 607 607 607 607 607 607 607 607 608 608 608 609 609 609 609 609 609 608 608 607 607 607 607 607 607 608 608 608 608 608 608 608 608 608 608 608 608 608 608 608 608 608 608 608 608 608 608 608 608 608 608 608 608 608 608 608 608 608 608 608 608 608 607 607 607 607 607 607 607 607 607 607 607 607 607 607 607 607 607 608 608 608 608 608 608 608 608 609 609 609 609 609 609 608 608 607 607 607 607 607 607 607 607 607 608 608 608 608 609 609 609 609 609 610 610 610 609 609 609 609 609 609 609 609 608 608 607 607 607 607 607 607 607 607 607 607 607 607 607 607 607 607 607 607 607 607 607 607 607 606 607 607 607 607 607 607 607 608 608 608 608 608 607 607 607 608 608 608 608 608 608 608 608 607 607 607 607 607 607 607 607 607 607 607 607 607 607 608 608 608 608 608 608 608 608 607 607 607 607 607 607 607 607 607 607 607 607 607 607 607 607 607 607 607 607 607 607 607 606 606 606 606 606 606 606 607 607 607 607 607 607 607 607 606 606 606 606 606 606 606 606 606 606 606 606 607 607 606 606 606 606 605 605 604 604 604 604 604 604 604 604 604 605 605 605 605 605 605 605 605 605 605 605 605 604 604 603 603 603 603 602 602 602 603 603 603 604 604 605 605 605 605 605 604 603 603 603 602 602 602 602 602 602 602 602 602 602 602 602 602 602 602 602 602 602 0 0 0 0 0 0 0 0 0 0 0 0 0 0 0 0 0 0 0 0 0 0
0 0 0 0 606 606 605 605 605 605 605 605 606 606 606 606 607 607 607 607 606 606 606 606 607 607 607 607 607 607 607 607 607 607 607 607 606 606 606 606 606 606 606 606 606 605 605 606 606 606 606 606 606 606 606 605 605 605 605 605 605 605 605 606 606 606 606 606 607 607 607 607 607 607 607 607 607 607 607 607 607 607 606 606 606 606 606 606 606 606 606 606 606 607 607 607 607 607 607 607 607 607 607 607 607 607 607 607 607 607 607 607 607 607 607 607 607 607 607 607 607 607 607 607 607 607 607 607 607 607 607 608 608 608 608 608 607 607 607 607 606 606 606 606 606 606 606 607 607 607 607 607 607 607 608 608 608 608 607 607 607 607 607 607 607 607 607 607 607 607 607 607 607 607 607 607 607 607 607 607 607 607 607 607 607 607 607 607 607 607 607 607 607 607 607 607 607 607 607 607 607 607 607 607 607 607 607 606 606 606 606 606 606 607 607 607 607 607 607 607 607 607 607 607 607 607 607 607 607 607 607 607 607 607 607 607 607 607 607 606 606 606 606 606 606 607 607 607 607 607 607 608 608 609 609 609 609 609 609 609 609 609 608 608 608 607 607 607 607 607 607 607 606 606 606 606 606 606 606 606 606 606 606 606 606 606 606 606 606 606 606 606 606 606 606 606 606 606 606 607 607 607 607 607 607 607 607 607 607 607 607 607 607 607 607 607 607 606 606 606 606 606 606 606 606 606 606 606 607 607 607 607 607 607 607 607 607 607 607 606 606 606 606 606 606 606 606 606 606 606 606 606 607 607 607 607 606 606 606 606 606 606 606 606 606 606 606 606 606 606 606 606 606 606 606 606 606 605 605 605 605 605 605 605 606 606 606 606 606 606 606 605 605 605 604 603 603 603 603 603 603 603 603 603 603 603 603 603 603 604 604 604 604 604 604 603 603 603 603 602 602 602 602 602 602 602 602 602 603 603 603 603 604 604 603 603 603 602 602 602 602 601 601 601 601 601 601 601 601 601 601 601 601 602 602 602 602 601 0 0 0 0 0 0 0 0 0 0 0 0 0 0 0 0 0 0 0 0 0 0
0 0 0 0 605 605 605 604 604 604 604 605 605 605 605 605 606 606 606 606 606 606 606 606 606 606 606 606 606 607 607 607 606 606 606 606 606 606 606 606 605 605 605 605 605 605 605 605 605 605 605 605 605 605 605 605 605 604 604 604 604 605 605 605 605 606 606 606 606 606 606 606 606 606 606 606 606 606 606 606 606 606 606 606 605 605 605 605 605 605 605 605 606 606 606 606 607 607 607 607 607 606 606 606 606 606 606 606 606 606 606 606 606 606 606 606 606 606 606 606 606 606 606 606 606 606 606 606 606 606 607 607 607 607 607 607 607 607 606 606 606 606 606 606 606 606 606 606 606 606 606 607 607 607 607 607 607 607 607 607 606 606 606 606 606 606 606 606 606 606 607 607 607 606 606 606 606 606 606 606 606 606 606 606 606 606 606 606 606 606 606 606 606 606 606 606 606 606 606 606 606 607 607 606 606 606 606 606 606 606 606 606 606 606 606 606 606 606 606 606 606 606 606 606 606 606 606 606 607 607 607 607 607 607 607 607 606 606 606 606 606 606 606 606 606 606 606 606 607 607 607 607 607 607 608 608 608 608 608 608 608 607 607 607 607 607 606 606 606 606 606 606 606 606 606 606 606 606 606 606 606 605 605 605 605 605 605 605 605 605 605 605 605 605 605 605 605 605 606 606 606 606 606 606 606 606 606 606 606 606 606 606 606 606 606 606 606 606 606 605 605 605 605 605 606 606 606 606 606 606 606 606 606 606 606 606 606 606 606 606 606 605 605 605 605 605 605 605 605 606 606 606 606 606 606 606 606 606 606 605 605 605 605 605 605 605 605 605 605 605 605 605 605 605 605 605 605 605 605 605 605 605 605 605 605 605 605 605 605 605 605 604 603 603 603 602 602 602 602 602 602 602 602 602 602 602 602 602 602 603 603 603 603 603 603 602 602 602 602 602 601 601 601 601 601 601 602 602 602 602 602 603 603 603 602 602 602 601 601 601 601 600 601 600 600 600 600 600 600 600 600 600 601 601 601 601 601 601 600 0 0 0 0 0 0 0 0 0 0 0 0 0 0 0 0 0 0 0 0 0
0 0 0 0 604 603 603 603 603 603 603 603 604 604 604 605 605 605 605 605 605 605 605 605 605 606 606 606 606 606 606 606 606 606 605 605 605 605 605 605 605 605 605 605 604 604 603 603 603 604 604 604 604 604 604 604 603 603 603 603 603 604 604 605 605 605 605 605 606 606 606 606 606 606 606 606 606 606 606 606 606 605 605 605 605 605 605 604 604 604 604 605 605 605 605 606 606 606 606 606 606 606 606 605 605 605 605 605 606 606 606 606 606 606 606 606 606 606 606 605 605 605 605 605 605 605 605 606 606 606 606 606 606 606 606 606 606 606 606 606 605 605 605 605 605 605 606 606 606 606 606 606 606 606 607 607 606 606 606 606 606 606 605 605 605 605 605 606 606 606 606 606 606 606 606 606 606 606 606 606 606 606 606 606 606 606 606 606 606 606 606 606 606 606 606 605 605 606 606 606 606 606 606 606 606 605 605 605 605 605 605 605 605 605 605 605 605 605 605 605 605 605 605 605 605 606 606 606 606 606 606 606 606 606 606 606 606 606 605 605 605 605 605 605 605 605 606 606 606 606 606 607 607 607 607 607 607 607 607 607 607 606 606 606 606 606 606 606 605 605 605 605 605 605 605 605 605 605 605 605 605 605 605 605 605 605 605 604 604 604 604 604 604 604 604 604 604 604 605 605 605 605 605 605 605 605 605 605 605 605 606 606 606 606 606 606 605 605 605 605 605 605 605 605 605 605 605 605 605 605 606 606 606 606 606 605 605 605 605 605 605 605 604 604 604 604 604 605 605 605 605 605 605 605 605 605 605 605 605 605 605 604 604 604 604 604 604 604 604 604 604 604 604 604 604 604 603 603 603 603 603 603 603 603 603 604 604 603 603 603 603 603 602 602 602 601 601 601 601 601 601 601 601 601 601 601 601 601 601 601 602 602 602 602 602 601 601 601 601 601 601 601 601 601 601 601 601 601 601 601 602 602 602 601 601 601 601 600 600 599 599 599 599 599 599 599 599 599 599 599 599 599 599 599 600 600 600 600 600 0 0 0 0 0 0 0 0 0 0 0 0 0 0 0 0 0 0 0 0 0
0 0 0 0 603 603 602 602 602 602 602 602 603 603 603 603 603 603 603 603 604 604 604 604 605 605 605 605 605 605 605 605 605 605 605 605 605 605 605 605 604 604 603 603 603 603 603 603 603 603 603 603 603 603 603 603 603 603 603 603 603 603 603 603 604 604 605 605 605 605 605 605 605 605 605 605 605 605 605 605 605 605 605 604 604 604 603 603 603 603 603 603 603 604 605 605 605 605 605 605 605 605 605 605 605 604 605 605 605 605 605 605 605 605 605 605 605 605 605 605 605 605 605 605 605 605 605 605 605 605 605 605 605 605 605 605 605 605 605 605 605 605 605 605 605 605 605 605 605 606 606 606 606 606 606 606 606 606 606 605 605 605 605 605 605 605 605 605 605 605 605 605 605 605 605 605 605 605 605 605 605 605 605 605 605 605 605 605 605 605 605 605 605 605 605 605 605 605 605 605 605 606 606 605 605 605 605 604 603 603 603 603 603 603 603 603 603 603 604 604 604 604 604 604 604 605 605 605 605 605 605 605 606 605 605 605 605 605 605 605 604 604 604 604 605 605 605 605 605 606 606 606 606 606 606 606 606 606 606 606 606 606 606 606 605 605 605 605 605 604 604 604 604 604 604 604 604 604 604 604 604 604 604 603 603 603 603 603 603 603 603 603 603 603 603 603 603 603 603 603 604 604 604 604 604 604 605 605 605 605 605 605 605 605 605 605 605 605 604 604 604 604 604 604 604 604 604 605 605 605 605 605 605 605 605 605 605 605 604 604 604 603 603 603 603 603 603 603 603 604 604 604 605 605 605 604 604 604 604 604 604 603 603 603 603 603 603 603 603 603 603 603 603 603 603 603 603 603 602 603 603 603 603 603 603 603 603 603 602 602 602 602 601 601 601 600 600 600 600 600 600 600 600 600 600 600 600 600 600 601 601 601 601 601 601 601 600 600 600 599 599 599 599 599 599 599 600 600 600 601 601 601 601 600 600 599 599 599 599 598 598 598 598 598 598 598 598 598 598 599 598 599 599 599 599 599 599 599 599 0 0 0 0 0 0 0 0 0 0 0 0 0 0 0 0 0 0 0 0 0
0 0 0 0 602 602 602 601 601 601 601 602 602 602 602 602 602 602 603 603 603 603 603 603 603 603 604 604 604 604 604 604 604 604 603 603 603 603 604 603 603 603 603 603 602 602 602 602 602 602 602 602 602 602 602 602 602 602 602 602 602 602 603 603 603 603 604 604 604 604 605 605 605 605 605 605 605 605 605 605 605 604 604 604 603 603 603 602 602 602 602 602 603 603 603 604 604 604 605 604 604 604 603 603 603 603 603 603 603 603 604 604 604 604 604 604 604 604 604 604 604 604 604 604 604 604 604 604 604 604 604 605 605 605 605 605 605 605 604 604 604 604 604 604 605 605 605 605 605 605 605 605 605 605 605 605 605 605 605 605 605 604 604 604 604 604 604 604 604 604 605 605 604 604 604 604 604 604 604 604 604 604 604 604 604 604 604 604 604 604 604 604 604 604 604 604 604 604 604 605 605 605 605 605 604 604 603 603 602 602 602 602 602 602 602 602 602 602 603 603 603 603 603 603 603 603 603 604 604 605 605 605 605 605 605 605 604 604 604 603 603 603 603 603 603 604 604 605 605 605 605 605 606 606 606 606 606 606 606 605 605 605 605 605 604 604 603 603 603 603 603 603 603 603 603 603 603 603 603 603 603 603 603 603 603 603 603 602 602 602 602 602 602 602 602 602 602 602 602 603 603 603 603 603 603 603 603 603 604 604 604 604 604 604 604 604 604 603 603 603 603 603 603 603 603 603 603 603 603 603 603 603 603 603 603 603 603 603 603 603 603 603 603 602 602 602 602 602 602 603 603 603 603 603 603 603 603 603 603 603 603 603 602 602 602 602 602 602 602 602 602 602 602 602 602 602 602 602 602 602 602 602 602 602 602 602 602 602 601 601 601 601 600 600 599 599 599 599 599 599 599 599 599 599 599 599 599 599 599 599 599 599 599 599 599 599 599 599 599 599 599 599 599 599 599 599 599 599 599 600 599 599 599 599 599 598 598 598 598 597 597 597 598 598 598 598 598 598 598 598 598 598 598 598 598 598 599 598 598 0 0 0 0 0 0 0 0 0 0 0 0 0 0 0 0 0 0 0 0 0
0 0 0 0 601 601 601 601 600 600 601 601 601 601 601 601 601 602 602 602 602 602 602 602 602 603 603 603 603 603 603 603 603 603 602 602 603 603 603 603 603 602 602 602 602 601 601 601 601 601 601 601 602 602 602 602 602 602 602 602 602 602 602 602 602 603 603 603 603 603 604 604 604 603 603 603 603 603 604 604 604 603 603 603 603 602 602 602 601 601 602 602 602 602 602 603 603 603 603 603 603 603 603 602 602 602 602 602 602 603 603 603 603 603 603 603 603 603 603 603 603 603 603 603 603 603 603 603 603 603 603 603 603 603 603 603 603 603 603 603 603 603 603 603 604 604 604 604 605 605 605 605 605 605 605 605 605 605 604 604 603 603 603 603 603 603 603 603 603 603 603 603 603 603 603 603 603 603 603 603 603 603 603 603 603 603 603 603 603 603 603 603 603 603 603 603 603 603 603 603 604 604 604 603 603 603 602 602 602 601 601 601 601 601 601 601 601 601 601 602 602 602 602 602 602 602 602 603 603 603 603 603 604 603 603 603 603 603 603 603 603 603 603 603 603 603 603 603 604 604 605 605 605 605 605 605 605 605 605 605 604 604 603 603 603 603 603 603 603 603 603 603 603 603 603 603 603 603 603 602 602 602 602 602 602 602 602 602 602 602 602 602 601 601 601 601 601 601 601 602 602 602 602 602 602 602 602 603 603 603 603 603 603 603 603 603 603 603 603 603 602 602 602 602 602 602 602 602 602 602 602 602 602 602 602 602 602 602 602 602 602 602 602 602 602 601 602 602 602 602 602 602 602 602 602 603 603 603 603 602 602 602 602 601 601 601 601 601 601 601 601 601 601 601 601 601 601 601 601 601 601 601 601 601 601 601 601 601 601 600 600 599 599 599 598 598 598 598 598 598 598 598 598 598 598 598 598 598 598 598 598 598 598 598 598 598 598 598 598 598 598 598 598 598 598 598 599 599 599 599 599 598 598 598 598 597 597 597 597 597 596 597 597 597 597 597 597 597 597 597 597 597 597 597 597 598 598 598 597 597 0 0 0 0 0 0 0 0 0 0 0 0 0 0 0 0 0 0 0 0
0 0 0 0 601 600 600 599 599 599 599 599 599 600 600 600 600 601 601 601 601 601 601 601 602 602 602 602 602 602 602 602 602 602 602 602 602 602 602 602 602 602 601 601 601 601 600 600 600 600 601 601 601 601 601 601 601 601 601 601 601 601 601 601 602 602 602 602 603 603 603 603 603 603 603 603 603 603 603 603 603 603 603 602 602 602 601 601 601 600 600 601 601 601 601 602 602 602 602 602 602 602 602 602 601 601 601 602 602 602 602 602 602 602 602 602 602 602 602 602 602 603 602 602 602 602 602 602 602 602 602 602 602 602 603 603 602 602 602 602 602 602 603 603 603 603 603 603 603 604 604 604 604 604 604 604 604 604 603 603 603 603 602 602 602 602 602 602 603 603 603 603 602 602 602 602 602 602 602 602 602 602 602 602 602 602 602 602 602 602 602 602 602 602 602 602 602 602 602 603 603 603 603 603 602 602 602 601 601 600 600 599 599 600 600 600 600 600 600 600 601 601 601 601 601 601 601 602 602 602 602 603 603 603 603 603 602 602 602 602 602 602 602 602 602 602 602 603 603 603 603 603 603 603 603 603 603 603 603 603 603 603 602 602 602 602 602 602 602 602 602 602 602 602 602 602 602 602 602 602 602 601 601 601 601 601 601 601 601 601 601 601 601 601 601 601 601 601 601 601 601 601 601 601 601 602 602 602 602 602 602 602 602 602 602 602 602 602 602 602 602 602 601 601 602 602 602 602 602 602 602 602 601 601 601 601 601 601 601 601 601 601 601 601 601 601 601 601 601 601 601 601 602 602 602 602 602 602 602 602 601 601 601 601 600 600 599 599 599 600 600 600 600 600 600 599 599 599 599 599 600 600 600 600 600 600 600 599 599 599 599 598 598 598 597 597 597 597 597 597 597 597 597 597 597 597 597 597 597 597 597 597 597 598 597 597 597 597 597 597 597 597 597 598 598 598 598 598 598 598 598 598 597 597 597 597 596 596 595 595 595 595 595 596 596 597 597 597 597 597 597 597 597 597 597 597 597 597 597 597 0 0 0 0 0 0 0 0 0 0 0 0 0 0 0 0 0 0 0 0
0 0 0 0 599 599 599 599 599 598 598 598 599 599 599 599 599 599 599 599 599 600 600 601 601 601 601 601 601 601 601 601 601 601 601 601 601 601 601 601 601 601 601 600 600 600 599 599 599 599 599 599 600 600 601 601 601 601 601 601 601 601 601 601 601 601 601 602 602 602 602 602 602 602 602 602 602 602 602 602 602 602 602 602 601 601 600 600 599 599 599 599 599 600 600 601 601 601 601 601 601 601 601 601 601 601 601 601 601 601 601 601 601 601 601 601 601 601 602 602 602 602 602 602 602 602 601 601 601 601 601 601 602 602 602 602 602 601 601 602 602 602 602 602 602 602 603 603 603 603 603 603 603 603 603 603 603 603 603 602 602 602 602 602 602 602 602 602 602 602 602 602 602 601 601 601 601 601 601 601 601 601 601 601 601 601 601 601 601 601 601 601 601 601 601 601 601 601 602 602 602 602 602 602 601 601 601 600 599 599 599 598 599 599 599 599 599 599 599 599 599 599 599 599 599 600 600 601 601 601 601 602 602 602 602 602 602 602 601 601 601 601 601 601 601 601 602 602 602 602 602 602 602 602 602 602 602 602 602 602 602 602 602 601 601 601 601 601 601 601 601 601 601 601 601 601 601 601 601 601 601 601 600 600 600 600 600 600 600 600 600 600 600 600 599 599 599 599 599 599 599 600 600 601 601 601 601 601 601 601 601 601 601 601 601 601 601 601 601 601 601 601 601 601 601 601 601 601 601 601 601 601 601 601 600 600 600 600 600 600 600 600 600 600 600 600 600 600 600 600 601 601 601 601 601 601 601 601 601 601 601 600 600 599 599 599 599 599 599 599 599 599 599 599 599 599 598 598 598 599 599 599 599 599 599 599 599 599 598 598 598 597 597 597 596 596 596 596 596 596 596 596 596 596 596 596 596 596 596 596 596 597 597 597 597 597 597 597 596 596 597 597 597 597 597 597 597 597 597 597 597 597 597 596 596 595 595 595 595 594 594 595 595 595 595 596 596 596 596 596 596 596 596 596 596 596 596 596 596 595 0 0 0 0 0 0 0 0 0 0 0 0 0 0 0 0 0 0 0 0
0 0 0 0 599 599 598 598 598 598 598 598 598 598 598 598 598 598 598 598 599 599 599 599 599 600 600 600 600 600 599 599 599 599 599 599 599 599 600 600 600 600 600 599 599 599 599 598 598 598 599 599 599 599 599 600 600 600 600 600 600 600 599 600 600 600 601 601 601 601 602 602 602 602 602 602 602 602 602 602 602 602 601 601 601 600 599 599 599 598 598 598 598 598 599 599 599 599 599 600 600 599 599 599 599 599 599 599 600 600 600 600 600 600 600 600 601 601 601 601 601 601 601 601 601 601 601 601 601 601 601 601 601 601 601 601 601 601 601 601 601 601 601 601 602 602 602 602 602 602 602 602 602 602 602 602 602 602 602 602 601 601 601 601 601 601 601 601 601 601 601 601 601 601 600 600 600 600 600 600 600 600 600 600 600 600 600 600 599 599 599 599 599 599 600 600 600 601 601 601 601 601 601 601 601 600 599 599 598 598 598 598 598 598 598 598 598 598 598 598 598 598 598 598 598 599 599 599 599 600 600 601 601 601 601 601 601 601 601 601 600 600 600 600 600 601 601 601 601 601 601 602 601 601 601 601 601 601 601 601 601 601 601 601 600 600 600 600 600 601 601 601 601 601 601 601 601 601 600 600 599 599 599 599 599 599 599 599 599 599 599 599 599 599 599 599 599 598 599 599 599 599 599 599 600 600 600 600 600 601 601 601 601 601 600 600 600 600 600 600 600 600 600 600 600 600 600 600 600 600 599 599 599 599 599 599 599 599 599 599 599 599 599 599 599 599 599 599 599 599 599 599 599 599 600 600 600 600 600 600 599 599 599 599 598 598 598 598 598 598 598 598 598 598 598 598 598 597 598 598 598 598 598 598 598 598 598 598 598 597 597 596 596 595 595 595 595 595 595 595 595 595 595 595 595 595 595 595 595 595 595 595 595 595 595 595 595 595 595 595 595 595 596 596 596 597 597 597 596 596 596 596 595 595 595 595 594 594 594 594 594 594 594 594 595 595 595 595 595 595 595 595 595 595 595 595 595 595 595 595 594 0 0 0 0 0 0 0 0 0 0 0 0 0 0 0 0 0 0 0
0 0 0 0 598 598 598 597 597 597 597 597 597 597 597 597 598 598 598 598 598 598 598 598 599 599 599 599 599 599 599 599 599 598 598 599 599 599 599 599 599 599 599 599 598 598 598 598 597 598 598 598 598 599 599 599 599 599 599 599 599 599 599 599 599 599 600 600 600 601 601 601 601 601 601 601 601 601 601 601 601 601 601 600 600 599 598 598 598 597 597 597 597 597 598 598 598 598 598 598 598 598 598 598 598 598 598 599 599 599 599 599 599 599 599 599 599 599 599 599 600 600 600 600 600 600 600 599 599 599 599 599 599 599 599 599 599 599 599 599 600 600 601 601 601 601 601 601 601 601 601 601 601 601 601 601 601 601 601 601 601 601 600 600 600 600 599 599 599 599 599 599 599 599 599 599 599 599 599 599 599 599 599 599 599 598 598 599 599 598 598 598 598 599 599 599 599 600 600 600 600 601 600 600 599 599 598 598 597 597 597 597 597 597 597 597 597 597 597 597 597 597 597 597 597 598 598 598 598 599 599 599 600 600 600 600 600 600 600 599 599 599 599 599 599 600 600 600 601 601 601 601 600 600 600 600 600 600 600 600 600 599 599 599 599 599 599 599 599 599 600 600 600 600 600 600 599 599 599 599 599 599 599 598 598 598 598 598 598 598 598 598 598 598 598 598 598 598 598 598 598 598 598 598 599 599 599 599 599 599 599 599 599 599 599 599 599 599 599 599 599 599 599 599 599 599 599 599 599 599 598 598 598 598 598 598 598 598 598 598 598 598 598 598 598 598 598 598 598 598 598 598 599 599 599 599 599 599 599 599 599 598 598 598 598 597 597 597 597 597 597 597 597 597 597 597 597 597 597 597 597 597 597 598 598 598 598 597 597 597 596 595 595 595 595 594 594 595 595 595 595 595 595 595 595 595 595 595 595 595 595 595 595 595 595 595 595 595 595 595 595 595 595 595 595 595 595 595 595 595 595 595 595 595 594 594 594 593 593 593 593 594 594 594 594 594 594 594 594 594 594 594 594 594 595 595 595 595 594 594 594 0 0 0 0 0 0 0 0 0 0 0 0 0 0 0 0 0 0 0
0 0 0 0 598 597 597 597 596 596 596 596 597 597 597 597 597 597 597 597 597 597 597 598 598 598 598 598 598 598 598 598 598 598 598 598 598 598 598 598 598 598 598 598 597 597 597 597 597 597 597 597 598 598 598 598 598 598 598 598 598 598 598 598 598 598 599 599 599 599 600 601 601 601 600 600 600 600 600 600 600 600 599 599 599 598 598 597 597 596 596 596 596 596 597 597 597 597 597 597 597 597 597 597 597 597 598 598 598 598 598 598 598 598 598 598 598 598 599 599 599 599 599 599 599 599 599 599 599 599 599 599 599 599 598 598 598 598 598 598 599 599 599 600 600 600 601 601 601 601 600 600 600 600 600 600 600 600 600 600 600 599 599 599 599 599 599 599 599 599 598 598 598 598 598 598 598 598 598 598 598 598 598 598 597 597 597 597 598 598 598 598 598 598 598 598 598 599 599 599 599 599 599 599 599 598 597 597 597 596 596 595 595 595 596 596 596 596 596 596 596 596 595 596 596 597 597 597 597 598 598 599 599 599 599 599 599 599 599 599 599 599 599 599 599 599 599 599 599 599 599 599 599 599 599 599 599 599 599 599 599 599 599 599 599 599 599 599 599 599 599 599 599 599 599 599 599 599 598 598 598 598 598 598 598 598 597 597 597 597 597 597 597 597 597 597 597 597 597 597 597 597 597 598 598 598 598 598 599 599 599 598 598 598 598 598 598 598 598 598 598 598 598 598 598 598 598 598 598 598 597 597 597 597 597 597 597 597 597 597 597 597 597 597 597 597 597 598 598 598 598 598 598 598 598 598 598 598 598 598 598 598 597 597 597 597 596 596 596 596 595 595 595 595 595 595 595 595 595 596 596 597 597 597 597 597 597 597 596 595 595 595 594 594 594 594 594 594 594 594 594 594 594 594 594 594 594 594 594 594 594 594 594 594 594 594 594 594 594 594 594 594 594 594 595 595 595 595 595 595 594 594 594 594 594 593 593 593 593 593 593 593 593 593 593 594 594 594 594 594 594 594 594 594 594 594 594 594 594 594 593 0 0 0 0 0 0 0 0 0 0 0 0 0 0 0 0 0 0 0
0 0 0 0 597 597 597 596 595 595 595 595 595 595 595 596 596 596 596 596 596 597 597 597 597 598 598 598 598 598 597 597 597 597 597 597 597 597 597 597 597 597 597 597 597 596 596 596 596 596 597 597 597 598 598 598 598 598 598 598 598 597 597 597 597 598 598 598 598 599 599 599 599 599 599 599 599 599 599 599 599 599 599 598 598 597 597 597 595 595 595 595 595 595 595 595 596 596 596 596 596 596 596 596 596 597 597 597 597 597 597 597 597 597 597 597 597 598 598 598 598 598 598 598 598 598 598 598 598 598 598 598 598 598 598 597 597 597 597 598 598 598 599 599 599 599 599 599 599 599 599 599 599 599 599 599 599 599 599 599 599 599 599 598 598 598 598 598 598 598 598 598 597 597 597 597 597 597 597 597 597 597 597 597 597 597 597 597 597 597 597 597 597 597 597 597 598 598 598 598 598 598 598 598 598 597 597 596 595 595 595 595 595 595 595 595 595 595 595 595 595 595 595 595 595 595 595 596 596 597 597 598 598 598 598 598 598 598 598 598 598 598 598 598 598 598 598 598 598 598 598 598 598 598 598 598 598 598 598 598 598 598 598 598 598 598 598 598 598 598 598 598 598 598 598 598 598 598 598 598 598 597 597 597 597 597 597 597 597 597 597 597 597 597 597 597 596 596 596 596 596 596 597 597 597 597 598 598 598 598 598 598 598 598 597 597 597 597 597 598 598 598 598 598 598 597 597 597 597 597 597 596 596 596 596 596 596 597 597 597 597 597 597 597 597 597 597 597 597 597 597 597 597 597 597 597 597 597 597 597 597 597 597 596 596 595 595 595 595 595 595 595 595 594 594 594 594 594 595 595 595 596 596 597 596 596 596 595 595 595 594 594 594 594 593 593 593 594 594 594 594 594 594 594 594 594 594 594 594 594 594 594 594 594 593 593 593 593 593 593 593 593 594 594 594 594 594 594 594 594 594 594 594 593 593 593 593 592 592 592 592 592 593 593 593 593 593 593 593 593 593 593 593 593 593 593 593 593 593 593 592 592 0 0 0 0 0 0 0 0 0 0 0 0 0 0 0 0 0 0
0 0 0 0 597 596 596 595 595 595 595 595 595 595 595 595 595 595 595 595 595 595 596 596 597 597 597 597 597 597 597 597 596 596 596 596 596 596 596 597 597 596 596 596 595 595 595 595 595 595 595 596 597 597 597 597 597 597 597 597 597 597 597 597 597 597 597 597 598 598 598 599 599 599 599 598 598 598 598 598 598 598 598 598 597 597 596 595 595 595 594 594 594 594 594 594 595 595 595 595 595 595 595 595 595 595 595 596 596 596 597 597 597 597 597 597 597 597 597 597 597 597 597 597 597 597 597 597 597 597 597 597 597 597 597 597 597 597 597 597 597 597 598 598 598 598 598 598 598 598 598 598 598 598 598 598 598 598 598 598 598 598 598 598 598 598 597 597 597 597 597 597 596 596 596 596 596 595 595 595 595 595 595 595 595 595 595 595 595 595 595 595 595 596 596 597 597 597 597 598 598 598 598 597 597 596 595 595 595 594 594 594 594 594 594 594 594 594 594 594 594 594 594 594 594 594 595 595 595 596 597 597 597 597 597 597 597 597 597 597 597 597 597 597 597 597 597 597 597 597 597 597 597 597 597 597 597 597 597 597 597 597 597 597 597 597 598 598 598 598 598 598 598 598 598 598 598 598 597 597 597 597 597 596 596 596 596 596 595 595 595 596 596 596 595 595 595 595 595 595 595 595 595 596 597 597 597 597 597 597 597 597 597 597 597 597 597 597 597 597 597 597 597 597 597 597 597 596 596 595 595 595 595 595 595 595 595 595 595 595 595 595 596 596 596 596 596 596 596 596 596 596 596 596 596 596 596 597 597 596 596 596 595 595 595 595 594 594 594 594 594 594 594 594 593 593 594 594 594 594 595 595 595 595 595 595 595 595 594 594 594 593 593 593 593 593 593 593 593 593 593 593 593 593 593 593 593 593 593 593 593 593 593 593 593 593 593 593 593 593 593 593 593 593 593 593 593 593 593 593 593 593 593 593 593 592 592 592 592 592 592 592 592 592 592 592 592 592 592 592 592 592 592 592 592 592 593 593 593 593 592 592 0 0 0 0 0 0 0 0 0 0 0 0 0 0 0 0 0 0
0 0 0 0 596 595 595 595 594 594 594 594 595 595 595 595 595 594 594 594 595 595 595 595 596 596 596 596 597 596 596 596 595 595 595 595 595 595 595 595 595 595 595 595 595 595 595 594 595 595 595 595 595 596 596 597 597 597 597 596 596 596 596 596 596 596 596 597 597 597 598 598 598 598 598 598 597 597 597 597 597 597 597 597 596 596 595 595 594 594 593 593 593 593 593 594 594 594 594 594 594 594 594 594 594 595 595 595 595 595 596 596 596 596 595 595 595 596 596 596 596 596 596 596 596 596 597 597 597 597 597 596 596 596 596 595 595 595 595 595 596 596 597 597 597 598 598 598 597 597 597 597 597 597 597 597 597 597 597 597 597 597 597 597 597 597 597 596 596 596 595 595 595 595 595 595 595 595 595 595 595 595 595 595 595 595 594 594 594 594 594 594 595 595 595 595 596 597 597 597 597 597 597 597 596 595 595 594 594 594 593 593 593 593 593 593 594 594 594 593 593 593 593 593 594 594 594 594 595 595 595 596 596 596 596 596 596 596 597 597 597 597 597 597 597 597 597 597 596 596 596 596 596 596 595 595 595 595 595 595 596 596 596 597 597 597 597 597 597 597 597 597 597 597 597 597 597 597 597 597 597 596 596 595 595 595 595 595 595 595 595 595 595 595 595 595 595 595 595 594 594 595 595 595 595 596 596 596 596 596 596 596 596 595 595 595 595 595 596 596 596 596 596 596 596 596 595 595 595 595 595 595 595 595 594 594 594 594 595 595 595 595 595 595 595 595 595 595 595 595 595 595 595 595 595 595 595 595 595 595 595 595 595 594 594 594 594 594 593 593 593 593 593 593 593 593 593 593 593 594 594 594 595 595 595 595 594 594 594 593 593 593 593 592 592 592 592 593 593 593 593 593 593 593 592 592 592 592 592 592 592 592 592 592 592 592 592 592 592 592 592 592 592 592 592 592 593 593 593 593 592 592 592 592 592 592 592 591 591 591 591 591 591 592 592 592 592 592 592 592 592 592 592 592 592 592 592 592 592 592 592 590 0 0 0 0 0 0 0 0 0 0 0 0 0 0 0 0 0 0
0 0 0 0 595 595 594 594 594 594 594 594 594 594 594 594 594 594 594 594 594 594 594 595 595 595 595 596 596 596 595 595 595 595 595 595 595 595 595 595 595 595 595 594 594 594 594 594 594 594 594 595 595 595 595 595 595 595 595 595 595 595 595 595 595 595 595 596 596 596 597 597 597 597 597 597 597 597 596 596 596 596 596 596 595 595 594 594 594 593 593 593 593 593 593 593 593 593 593 593 593 594 594 594 594 594 594 594 595 595 595 595 595 595 595 595 595 595 595 595 595 595 595 595 595 595 595 595 595 595 595 595 595 595 595 595 595 594 595 595 595 595 595 596 596 597 597 597 597 596 596 596 595 595 595 595 595 595 596 596 596 596 596 596 596 596 595 595 595 595 595 594 594 594 594 594 594 594 594 594 594 594 594 594 594 594 593 593 593 593 594 594 594 594 594 595 595 595 596 596 596 596 596 595 595 595 594 594 593 593 593 593 593 593 593 593 593 593 593 593 593 593 593 593 593 593 594 594 594 594 595 595 595 595 595 595 595 595 595 596 596 596 596 596 596 596 595 595 595 595 595 595 595 595 595 595 594 595 595 595 595 595 595 595 595 596 596 596 596 596 597 597 597 597 597 597 597 597 597 596 596 595 595 595 595 594 594 594 594 594 594 594 594 594 594 594 594 594 594 594 594 594 594 594 595 595 595 595 595 595 595 595 595 595 595 595 595 595 595 595 595 595 595 595 595 595 595 595 594 594 594 594 594 594 594 594 594 594 594 594 594 594 594 595 595 595 595 595 595 595 595 595 594 594 594 595 595 595 595 595 594 594 594 594 593 593 593 593 593 592 592 592 592 592 592 592 592 592 593 593 593 594 594 594 594 594 594 593 593 593 592 592 592 592 592 592 592 592 592 592 592 592 592 592 592 592 592 592 592 592 592 592 592 592 591 591 592 591 591 592 592 592 592 592 592 592 592 592 592 592 592 592 592 592 592 591 591 590 590 590 590 590 590 590 591 591 591 591 591 591 591 591 590 590 591 591 591 591 591 591 591 590 590 0 0 0 0 0 0 0 0 0 0 0 0 0 0 0 0 0
