1092 1091 1089 1089 1087 1085 1085 1083 1085 1085 1087 1091 1092 1094 1100 1102 1106 1108 1110 1110 1110 1112 1110 1108 1106 1104 1098 1092 1087 1079 1072 1065 1058 1052 1047 1046 1044 1042 1042 1042 1042 1044 1044 1044 1042 1042 1042 1042 1042 1042 1042 1042 1042 1042 1044 1044 1044 1046 1046 1047 1047 1049 1049 1051 1051 1051 1051 1051 1051 1051 1051 1049 1049 1047 1046 1044 1044 1042 1040 1039 1039 1040 1042 1044 1046 1047 1049 1051 1051 1051 1051 1049 1047 1046 1044 1042 1040 1039 1039 1039 1039 1042 1046 1049 1054 1060 1065 1068 1074 1076 1078 1078 1079 1076 1074 1070 1068 1067 1065 1061 1061 1060 1060 1058 1058 1056 1054 1054 1052 1052 1051 1051 1051 1051 1052 1054 1056 1058 1058 1060 1060 1061 1061 1061 1063 1063 1063 1063 1065 1065 1065 1067 1067 1067 1067 1068 1068 1070 1070 1070 1068 1068 1068 1068 1067 1067 1067 1067 1067 1068 1068 1070 1070 1072 1076 1076 1078 1079 1081 1083 1087 1091 1096 1100 1106 1110 1114 1119 1125 1129 1133 1135 1138 1138 1140 1140 1138 1138 1138 1138 1140 1142 1144 1144 1144 1146 1146 1146 1146 1148 1148 1152 1156 1158 1163 1165 1165 1160 1156 1152 1146 1142 1140 1138 1138 1140 1142 1144 1146 1146 1146 1142 1140 1135 1129 1127 1127 1129 1131 1133 1133 1135 1135 1135 1135 1133 1131 1131 1129 1131 1131 1131 1133 1135 1140 1140 1142 1142 1144 1144 1146 1148 1150 1152 1154 1156 1158 1160 1163 1163 1163 1163 1165 1165 1165 1165 1165 1165 1165 1165 1165 1163 1163 1163 1160 1158 1154 1152 1150 1146 1142 1138 1131 1129 1127 1129 1131 1131 1131 1129 1129 1131 1131 1133 1133 1133 1133 1138 1138 1142 1142 1144 1142 1142 1142 1142 1142 1140 1140 1138 1138 1138 1142 1142 1144 1146 1148 1150 1154 1160 1165 1171 1178 1184 1189 1193 1198 1202 0 0 0 0 1205 1205 1202 1202 1202 1205 1207 1211 1214 1218 1223 1228 1230 1233 1233 1230 1228 1221 1216 1207 1200 1195 1189 1184 1180 1178 1173 1171 1167 1163 1156 1150 1142 1131 1123 1114 1106 1098 1092 1089 1085 1081 1081 1081 1083 1085 1083 1081 1079 1076 1074 1072 1068 1065 1063 1061 1061 1061 1061 1061 1063 1063 1063 1063 1063 1063 1065 1065 1067 1068 1072 1078 1083 1089 1094 1098 1104 1108 0 1115 0 0 0 0 0 0 0 0 0 0 0 0 0 0 0 0 0 0 0 0 0 0 0 0 0 0 0 0 1083 1083 1083 1083 1083 0 0 0 0 0 0 0 0 0 0 0 0 0 0 1049 1042 1037 1035 1030 1029 1027 1022 0 0 0
1089 1087 1085 1085 1085 1083 1081 1079 1081 1081 1083 1087 1089 1092 1096 1098 1102 1104 1108 1108 1108 1108 1108 1106 1104 1098 1094 1087 1081 1072 1067 1058 1052 1047 1044 1040 1039 1039 1039 1039 1039 1040 1040 1040 1040 1040 1039 1039 1039 1040 1040 1040 1040 1040 1040 1042 1042 1042 1044 1044 1044 1046 1046 1047 1047 1047 1047 1047 1047 1047 1046 1046 1044 1042 1040 1039 1037 1035 1034 1032 1032 1034 1035 1035 1037 1039 1040 1042 1044 1044 1044 1044 1042 1040 1040 1039 1037 1035 1035 1034 1035 1037 1040 1044 1049 1054 1060 1063 1067 1070 1072 1072 1072 1070 1068 1067 1065 1063 1060 1058 1058 1056 1054 1054 1052 1052 1051 1051 1049 1047 1047 1047 1047 1047 1049 1051 1052 1054 1054 1056 1056 1058 1058 1058 1060 1060 1060 1060 1060 1060 1061 1061 1061 1061 1061 1063 1063 1063 1063 1063 1063 1063 1063 1061 1061 1061 1061 1061 1063 1065 1065 1067 1068 1070 1072 1074 1074 1076 1078 1079 1083 1087 1091 1096 1102 1106 1112 1117 1123 1127 1131 1133 1135 1138 1138 1138 1138 1138 1138 1135 1138 1138 1140 1140 1140 1142 1142 1144 1144 1144 1146 1150 1152 1154 1158 1158 1158 1156 1152 1146 1140 1138 1135 1135 1135 1138 1140 1144 1144 1144 1144 1142 1138 1133 1129 1127 1127 1129 1131 1131 1133 1135 1133 1133 1133 1131 1129 1129 1127 1127 1127 1127 1131 1131 1135 1135 1138 1142 1144 1144 1144 1146 1148 1150 1152 1154 1156 1156 1158 1160 1160 1163 1163 1163 1163 1163 1160 1160 1163 1163 1163 1163 1163 1163 1163 1160 1158 1154 1152 1150 1144 1142 1133 1131 1129 1129 1129 1129 1129 1129 1127 1129 1129 1131 1129 1129 1129 1131 1131 1133 1135 1133 1133 1133 1133 1133 1133 1133 1133 1131 1131 1131 1133 1135 1135 1138 1142 1144 1148 1154 1158 1167 1173 1180 1184 1189 1195 1200 0 0 0 0 0 1205 1202 1202 1202 1205 1209 1211 1214 1218 1226 1228 1230 1230 1230 1230 1223 1221 1211 1205 1198 1193 1189 1182 1180 1175 1173 1169 1165 1160 1154 1148 1138 1127 1117 1110 1102 1094 1089 1085 1081 1079 1078 1079 1079 1081 1083 1081 1078 1076 1074 1072 1070 1067 1065 1065 1063 1063 1063 1063 1065 1065 1065 1065 1065 1067 1067 1067 1068 1070 1074 1079 1085 1091 1096 1102 1108 1112 1114 1115 1117 1117 0 0 0 0 0 0 0 0 0 0 0 0 0 0 0 0 0 0 0 0 0 0 0 0 0 0 1083 1083 1081 1083 1083 1083 0 0 0 0 0 0 0 0 0 0 0 0 0 1052 1046 1039 1037 1034 1030 1027 0 1017 0 0
1085 1083 1083 1081 1081 1079 1079 1078 1078 1079 1081 1083 1085 1089 1092 1096 1098 1102 1104 1104 1106 1104 1104 1102 1098 1094 1089 1081 1074 1067 1060 1052 1047 1042 1040 1037 1035 1035 1035 1035 1037 1037 1037 1037 1037 1037 1037 1037 1037 1037 1037 1037 1039 1039 1039 1039 1039 1040 1040 1040 1042 1042 1042 1044 1044 1044 1044 1044 1044 1044 1042 1040 1039 1037 1035 1034 1032 1030 1029 1025 1025 1025 1027 1027 1029 1030 1032 1034 1035 1035 1037 1037 1037 1037 1035 1035 1034 1034 1032 1032 1032 1034 1037 1040 1044 1049 1054 1058 1061 1063 1065 1067 1067 1065 1063 1061 1060 1058 1056 1054 1054 1052 1051 1051 1049 1047 1047 1046 1046 1044 1042 1042 1044 1044 1046 1047 1049 1051 1051 1052 1052 1054 1054 1054 1054 1054 1054 1054 1054 1056 1056 1056 1056 1056 1056 1058 1058 1058 1058 1058 1058 1056 1056 1056 1056 1054 1054 1056 1058 1060 1061 1063 1065 1067 1068 1070 1072 1072 1074 1076 1079 1081 1087 1092 1096 1102 1108 1114 1119 1125 1129 1131 1133 1135 1135 1135 1135 1135 1135 1133 1133 1135 1135 1138 1138 1138 1138 1140 1140 1140 1142 1144 1148 1150 1152 1154 1154 1150 1146 1140 1135 1133 1133 1133 1133 1135 1140 1144 1144 1144 1144 1142 1138 1135 1131 1129 1129 1131 1133 1133 1135 1135 1135 1133 1131 1129 1127 1125 1125 1123 1125 1125 1127 1129 1133 1135 1138 1140 1142 1144 1144 1146 1146 1148 1150 1150 1152 1154 1156 1158 1158 1158 1158 1158 1158 1160 1160 1160 1160 1160 1160 1160 1163 1163 1160 1158 1158 1154 1154 1148 1146 1142 1135 1133 1131 1131 1131 1131 1131 1129 1127 1127 1127 1127 1125 1125 1123 1123 1125 1127 1127 1127 1125 1125 1125 1125 1127 1127 1127 1125 1127 1127 1129 1129 1129 1133 1135 1138 1142 1146 1152 1158 1169 1175 1180 1184 1191 1198 0 0 0 0 0 1202 1200 1202 1202 1207 1209 1211 1214 1221 1223 1228 1230 1230 1228 1226 1223 1216 1209 1202 1195 1193 1189 1182 1178 1175 1169 1167 1163 1156 1150 1144 1133 1121 1112 1106 1098 1091 1085 1081 1078 1078 1078 1078 1079 1081 1081 1079 1078 1076 1076 1074 1072 1070 1068 1067 1065 1067 1067 1067 1067 1067 1067 1068 1068 1068 1068 1068 1070 1072 1076 1081 1087 1092 1098 1104 1110 1114 1117 1119 0 0 0 0 0 0 0 0 0 0 1067 1067 1067 0 1067 0 0 0 0 0 0 0 0 0 0 0 0 0 1083 1083 1083 1083 1083 1083 1085 0 0 0 0 0 0 0 0 0 0 0 0 1054 1047 1042 1040 1035 1034 1029 0 1019 0 0
1083 1081 1081 1079 1079 1078 1078 1076 1076 1076 1078 1079 1083 1087 1089 1092 1094 1098 1100 1102 1100 1102 1100 1096 1092 1089 1081 1076 1068 1061 1052 1047 1042 1039 1035 1034 1034 1034 1034 1034 1034 1034 1034 1034 1034 1034 1034 1034 1035 1035 1035 1035 1035 1037 1037 1037 1037 1037 1039 1039 1039 1039 1040 1040 1040 1040 1040 1039 1039 1039 1039 1037 1035 1034 1030 1029 1027 1024 1022 1019 1019 1019 1019 1019 1019 1020 1022 1025 1027 1029 1030 1030 1032 1032 1032 1032 1030 1030 1030 1030 1030 1030 1034 1037 1040 1044 1049 1052 1054 1058 1060 1060 1060 1060 1058 1056 1056 1052 1051 1051 1049 1047 1047 1046 1046 1044 1042 1042 1040 1039 1039 1039 1040 1040 1042 1044 1046 1047 1047 1049 1049 1051 1051 1051 1051 1051 1051 1051 1051 1051 1051 1051 1051 1051 1051 1052 1052 1052 1052 1052 1051 1051 1051 1049 1049 1049 1049 1051 1052 1054 1058 1058 1061 1063 1067 1067 1068 1070 1070 1072 1076 1079 1083 1087 1092 1098 1102 1108 1114 1121 1125 1127 1131 1133 1133 1133 1133 1133 1133 1131 1131 1131 1133 1133 1133 1133 1133 1135 1138 1138 1140 1142 1144 1146 1148 1148 1148 1146 1140 1135 1131 1129 1131 1131 1131 1135 1140 1140 1142 1144 1142 1140 1135 1133 1131 1129 1131 1133 1133 1133 1135 1135 1133 1131 1131 1127 1125 1123 1123 1121 1123 1123 1125 1127 1131 1133 1138 1140 1142 1144 1144 1144 1146 1146 1148 1148 1148 1150 1152 1154 1154 1156 1154 1154 1154 1154 1152 1154 1154 1154 1156 1156 1158 1160 1158 1158 1154 1154 1150 1148 1144 1140 1133 1129 1131 1131 1131 1129 1131 1129 1125 1123 1123 1123 1123 1121 1119 1119 1119 1121 1121 1121 1121 1119 1119 1119 1121 1121 1121 1121 1121 1123 1123 1125 1127 1129 1129 1131 1135 1142 1146 1152 1160 1169 1175 1180 1186 1193 0 0 0 0 0 1202 1200 1200 1202 1205 1209 1211 1214 1218 1223 1226 1228 1226 1226 1221 1218 1214 1207 1200 1193 1191 1186 1180 1178 1173 1169 1165 1160 1154 1148 1138 1127 1117 1108 1102 1094 1089 1083 1079 1076 1074 1076 1076 1078 1079 1081 1079 1079 1078 1076 1074 1072 1072 1070 1068 1068 1068 1068 1068 1070 1070 1070 1070 1070 1072 1072 1072 1072 1074 1078 1083 1089 1096 1102 1108 1112 1114 1117 1117 1117 0 0 0 0 0 0 0 0 1067 1068 1068 1068 1070 1068 0 0 0 0 0 0 0 0 0 0 0 0 1083 1087 1083 1085 1083 1083 1083 1085 0 0 0 0 0 0 0 0 0 0 0 0 1058 1051 1046 1044 1039 1037 1032 0 1020 0 0
1081 1079 1079 1078 1076 1076 1076 1074 1074 1074 1076 1078 1081 1083 1087 1089 1092 1094 1096 1098 1096 1096 1094 1091 1087 1081 1076 1068 1061 1054 1047 1042 1037 1034 1032 1030 1030 1030 1030 1030 1030 1030 1030 1030 1032 1032 1032 1032 1032 1032 1034 1034 1034 1034 1034 1035 1035 1035 1035 1035 1035 1037 1037 1037 1037 1035 1035 1035 1035 1035 1034 1032 1032 1030 1027 1025 1024 1020 1017 1015 1014 1012 1012 1012 1012 1014 1015 1019 1020 1022 1024 1027 1029 1030 1030 1030 1029 1029 1029 1027 1029 1029 1029 1032 1035 1040 1042 1046 1049 1052 1054 1054 1054 1052 1052 1052 1051 1049 1047 1046 1046 1044 1044 1042 1040 1040 1039 1039 1037 1035 1035 1035 1037 1037 1039 1040 1042 1044 1044 1046 1046 1047 1047 1047 1047 1047 1047 1046 1046 1046 1046 1046 1046 1046 1046 1047 1047 1047 1047 1047 1046 1046 1044 1044 1044 1042 1044 1046 1049 1051 1052 1054 1058 1061 1063 1065 1067 1067 1068 1068 1072 1076 1078 1083 1089 1092 1096 1102 1110 1114 1119 1123 1125 1129 1131 1131 1131 1131 1129 1129 1129 1129 1129 1131 1131 1131 1133 1131 1133 1135 1135 1138 1138 1140 1142 1142 1142 1140 1135 1131 1127 1127 1127 1129 1129 1133 1138 1140 1142 1142 1142 1138 1138 1135 1131 1131 1131 1133 1133 1133 1133 1133 1131 1129 1127 1125 1123 1121 1121 1121 1121 1121 1123 1125 1129 1133 1135 1138 1142 1142 1142 1142 1144 1144 1144 1146 1146 1148 1148 1150 1150 1150 1152 1150 1150 1150 1150 1150 1150 1150 1150 1150 1152 1152 1154 1152 1150 1148 1148 1144 1142 1138 1131 1127 1129 1129 1129 1127 1127 1125 1121 1121 1121 1121 1119 1117 1115 1115 1115 1117 1117 1115 1115 1115 1115 1115 1115 1117 1117 1117 1117 1119 1121 1121 1123 1123 1125 1127 1129 1135 1142 1148 1156 1165 1169 1175 1182 1189 0 0 0 0 0 1202 1200 1200 1202 1205 1209 1211 1211 1218 1223 1226 1226 1223 1221 1216 1216 1211 1205 1198 1191 1189 1184 1180 1175 1171 1167 1163 1158 1152 1144 1133 1123 1114 1104 1096 1092 1087 1081 1078 1076 1074 1074 1074 1076 1079 1079 1079 1079 1078 1078 1076 1074 1074 1072 1072 1072 1072 1072 1072 1072 1072 1072 1074 1074 1074 1074 1074 1076 1078 1081 1087 1092 1098 1104 1110 1114 1115 1119 1119 1117 1112 0 0 0 0 0 0 1068 1068 1068 1068 1068 1070 1070 0 0 0 0 0 0 0 0 0 0 0 0 1085 1085 1083 1083 1083 1083 1083 1085 0 0 0 0 0 0 0 0 0 0 0 1068 1061 1056 1049 1047 1044 1040 1035 0 1024 0 0
1079 1078 1076 1076 1074 1074 1072 1072 1072 1072 1074 1076 1078 1081 1083 1087 1089 1091 1092 1092 1092 1091 1089 1085 1081 1074 1068 1061 1054 1047 1042 1037 1034 1030 1029 1029 1029 1029 1029 1029 1029 1029 1029 1029 1029 1029 1029 1030 1030 1030 1032 1032 1032 1032 1032 1032 1032 1032 1034 1034 1034 1034 1034 1034 1034 1034 1034 1032 1032 1032 1030 1030 1029 1027 1024 1022 1020 1017 1014 1012 1009 1009 1007 1007 1006 1007 1009 1012 1014 1015 1019 1022 1024 1027 1027 1029 1027 1027 1027 1025 1025 1027 1027 1029 1032 1035 1039 1040 1044 1046 1047 1049 1049 1049 1047 1047 1047 1046 1044 1042 1042 1040 1039 1039 1037 1035 1035 1034 1034 1032 1032 1034 1034 1035 1037 1037 1039 1040 1040 1042 1042 1044 1044 1044 1044 1044 1044 1042 1042 1040 1040 1040 1040 1040 1040 1042 1042 1042 1042 1042 1040 1040 1039 1039 1039 1037 1037 1040 1044 1047 1049 1051 1054 1058 1060 1061 1063 1063 1063 1067 1068 1072 1074 1079 1083 1087 1092 1098 1104 1110 1114 1117 1121 1123 1125 1127 1127 1127 1127 1125 1125 1125 1127 1129 1129 1129 1129 1129 1129 1129 1133 1133 1133 1133 1133 1135 1133 1129 1127 1123 1121 1123 1125 1125 1129 1131 1138 1140 1140 1142 1140 1138 1135 1135 1133 1131 1131 1133 1133 1131 1131 1129 1129 1127 1125 1123 1119 1119 1117 1119 1119 1119 1123 1125 1129 1131 1133 1135 1138 1140 1140 1140 1140 1140 1142 1142 1142 1142 1146 1146 1148 1146 1146 1146 1146 1146 1144 1146 1144 1144 1144 1146 1146 1148 1148 1146 1144 1144 1142 1140 1138 1135 1129 1127 1127 1127 1125 1125 1123 1121 1119 1117 1119 1117 1115 1115 1114 1115 1115 1115 1115 1115 1114 1114 1112 1112 1112 1112 1112 1114 1114 1114 1115 1117 1117 1119 1121 1121 1125 1127 1133 1140 1150 1158 1163 1169 1175 1184 0 0 0 0 0 1202 1200 1200 1200 1205 1209 1209 1214 1216 1221 1223 1221 1221 1218 1214 1211 1207 1200 1193 1189 1186 1182 1175 1173 1169 1165 1160 1154 1148 1140 1131 1119 1108 1102 1094 1089 1085 1079 1076 1074 1072 1072 1074 1074 1078 1079 1079 1079 1079 1078 1078 1076 1076 1076 1074 1074 1074 1074 1074 1074 1076 1076 1076 1076 1078 1078 1078 1078 1079 1083 1087 1092 1098 1104 1110 1114 1117 1117 1117 1115 1110 1102 1094 1081 1070 1068 1068 1068 1068 1068 1068 1068 1070 1070 1068 1068 1070 0 0 0 0 0 0 0 0 0 1083 1085 1083 1083 1083 1085 1085 1085 1087 1085 0 0 0 0 0 0 0 0 0 1070 1065 1060 1054 1052 1047 1046 1040 0 1029 0 0
1078 1076 1074 1074 1072 1072 1070 1070 1068 1070 1072 1074 1076 1078 1081 1083 1085 1087 1089 1089 1087 1085 1083 1079 1074 1067 1060 1054 1047 1040 1037 1032 1029 1027 1025 1025 1025 1025 1025 1025 1025 1025 1025 1025 1027 1027 1027 1027 1029 1029 1029 1029 1029 1030 1030 1030 1030 1030 1030 1030 1030 1030 1030 1030 1030 1030 1030 1029 1029 1029 1029 1027 1025 1024 1022 1019 1017 1014 1011 1007 1006 1004 1003 1003 1001 1003 1004 1006 1007 1011 1014 1017 1020 1024 1025 1025 1025 1025 1025 1025 1024 1024 1025 1027 1030 1032 1034 1035 1039 1040 1042 1044 1044 1044 1044 1044 1042 1040 1040 1039 1037 1037 1035 1034 1034 1032 1030 1030 1030 1029 1030 1030 1030 1032 1034 1035 1037 1037 1039 1039 1040 1040 1040 1040 1040 1040 1040 1039 1039 1037 1037 1037 1037 1037 1037 1037 1039 1037 1037 1037 1035 1035 1034 1034 1032 1032 1034 1035 1039 1044 1046 1047 1051 1056 1058 1058 1060 1060 1061 1063 1065 1068 1072 1074 1079 1083 1087 1092 1098 1102 1108 1112 1115 1119 1121 1123 1123 1123 1123 1123 1123 1123 1123 1125 1125 1125 1125 1125 1125 1127 1127 1127 1127 1127 1127 1127 1125 1123 1119 1117 1115 1117 1121 1123 1127 1129 1135 1140 1142 1140 1140 1138 1133 1133 1133 1129 1129 1129 1129 1127 1127 1127 1125 1123 1121 1119 1117 1117 1117 1115 1117 1117 1119 1123 1127 1127 1129 1131 1133 1133 1133 1135 1135 1135 1135 1135 1135 1135 1138 1140 1140 1140 1140 1140 1140 1140 1140 1140 1140 1140 1140 1142 1142 1142 1142 1138 1135 1135 1133 1131 1131 1129 1125 1125 1125 1125 1125 1121 1119 1117 1115 1114 1115 1114 1114 1112 1114 1112 1112 1114 1115 1114 1112 1112 1110 1110 1110 1110 1110 1108 1108 1110 1112 1112 1114 1114 1115 1117 1119 1123 1127 1133 1144 1152 1156 1163 1167 0 0 0 0 0 0 0 1198 1200 1200 1202 1209 1209 1211 1216 1221 1221 1218 1216 1214 1209 1205 1202 1195 1189 1184 1180 1178 1173 1171 1167 1163 1158 1152 1146 1135 1125 1115 1106 1100 1092 1089 1083 1079 1076 1074 1072 1072 1072 1074 1076 1078 1079 1081 1081 1079 1079 1079 1079 1078 1078 1078 1078 1078 1079 1079 1079 1079 1081 1081 1081 1079 1079 1081 1083 1085 1089 1094 1100 1106 1110 1115 1115 1117 1117 1115 1110 0 0 0 1070 1068 1068 1068 1068 1068 1070 1070 1070 1070 1070 1068 0 0 0 0 0 0 0 0 0 0 1081 1085 1083 1083 1083 1083 1085 1085 1087 1085 0 0 0 0 0 0 0 0 0 1072 1068 1063 1060 1056 1051 1049 1044 1039 1032 0 0
1076 1074 1072 1070 1070 1068 1068 1067 1067 1067 1068 1072 1074 1076 1078 1079 1081 1083 1083 1083 1081 1079 1076 1070 1065 1060 1052 1046 1040 1035 1030 1027 1025 1024 1024 1024 1024 1024 1024 1024 1024 1024 1024 1024 1024 1024 1025 1025 1025 1025 1027 1027 1027 1027 1027 1027 1027 1027 1027 1027 1027 1027 1027 1027 1027 1027 1027 1027 1027 1027 1027 1025 1024 1020 1019 1015 1014 1011 1007 1004 1003 1001 999 998 998 998 999 1003 1003 1006 1011 1014 1017 1020 1024 1024 1024 1025 1025 1024 1024 1024 1024 1025 1027 1029 1030 1032 1035 1037 1039 1039 1039 1039 1039 1039 1039 1037 1035 1034 1034 1032 1032 1030 1029 1027 1027 1027 1027 1027 1027 1027 1029 1030 1032 1032 1034 1035 1035 1037 1037 1037 1039 1039 1039 1037 1037 1035 1035 1035 1034 1032 1032 1032 1032 1034 1034 1034 1034 1032 1032 1030 1029 1027 1027 1027 1029 1032 1035 1039 1040 1046 1047 1051 1054 1054 1054 1054 1056 1058 1061 1063 1067 1070 1074 1079 1083 1089 1092 1098 1102 1108 1112 1115 1117 1119 1121 1121 1121 1121 1119 1119 1121 1121 1121 1121 1123 1121 1123 1123 1125 1123 1123 1121 1121 1121 1119 1114 1112 1110 1110 1114 1117 1119 1123 1127 1133 1135 1140 1138 1138 1135 1131 1131 1129 1127 1125 1125 1125 1123 1123 1121 1119 1117 1115 1115 1114 1114 1114 1114 1115 1115 1119 1121 1123 1123 1125 1129 1129 1129 1131 1131 1131 1131 1131 1131 1131 1131 1131 1133 1135 1133 1133 1133 1133 1133 1133 1133 1133 1133 1133 1135 1135 1135 1135 1133 1131 1129 1129 1127 1125 1123 1119 1119 1119 1121 1119 1117 1119 1115 1114 1112 1112 1112 1110 1110 1112 1110 1112 1112 1112 1112 1112 1110 1110 1110 1108 1108 1108 1108 1106 1108 1108 1108 1110 1110 1112 1112 1114 1115 1121 1125 1135 1144 1148 1152 1160 1169 0 0 0 0 0 0 1198 1198 1198 1205 1209 1207 1209 1214 1216 1216 1214 1211 1207 1202 1198 1195 1189 1184 1180 1178 1173 1171 1167 1163 1158 1154 1146 1140 1131 1121 1114 1104 1096 1092 1087 1083 1079 1076 1072 1072 1072 1072 1074 1076 1078 1079 1081 1081 1081 1081 1081 1079 1079 1079 1079 1079 1079 1079 1081 1081 1081 1081 1083 1083 1083 1083 1083 1085 1087 1091 1096 1102 1106 1112 1114 1115 1115 1115 1112 1106 1098 1089 1078 1070 1068 1068 1068 1068 1070 1070 1070 1070 1070 1070 1072 1070 1070 1070 1072 1070 1072 1074 1076 1078 1079 1079 1081 1081 1081 1081 1083 1083 1085 1085 1085 0 0 0 0 0 0 0 0 0 1076 1072 1067 1061 1060 1054 1054 1049 1044 1039 0 0
1074 1070 1068 1068 1068 1067 1067 1065 1063 1065 1067 1068 1070 1072 1074 1076 1076 1078 1076 1076 1072 1070 1067 1061 1056 1051 1044 1039 1034 1030 1025 1024 1022 1020 1020 1020 1020 1020 1020 1020 1020 1020 1020 1020 1020 1022 1022 1022 1022 1024 1024 1024 1024 1024 1024 1024 1025 1025 1025 1025 1025 1025 1025 1025 1025 1025 1025 1025 1025 1025 1024 1022 1020 1019 1015 1014 1011 1007 1004 1001 999 998 996 995 995 995 996 999 999 1003 1007 1011 1015 1019 1020 1022 1022 1024 1024 1024 1024 1022 1022 1024 1025 1027 1027 1029 1030 1032 1034 1035 1035 1034 1035 1035 1034 1034 1032 1030 1029 1029 1027 1027 1025 1024 1024 1024 1024 1024 1024 1025 1027 1027 1029 1030 1032 1032 1034 1034 1034 1035 1035 1035 1035 1034 1034 1032 1032 1032 1030 1029 1029 1029 1029 1030 1030 1030 1030 1029 1029 1027 1025 1024 1022 1024 1024 1027 1032 1035 1039 1040 1044 1047 1051 1051 1051 1051 1052 1054 1058 1060 1063 1067 1070 1074 1079 1083 1089 1092 1098 1102 1106 1110 1114 1115 1117 1117 1117 1117 1115 1117 1117 1115 1117 1117 1117 1117 1119 1119 1121 1121 1119 1117 1115 1114 1112 1106 1104 1100 1104 1108 1112 1117 1119 1123 1131 1135 1138 1135 1133 1129 1129 1125 1125 1123 1121 1121 1119 1119 1119 1117 1115 1114 1112 1112 1110 1110 1110 1110 1112 1114 1115 1117 1119 1121 1123 1125 1125 1127 1127 1127 1127 1127 1125 1125 1123 1123 1123 1125 1125 1125 1127 1127 1125 1125 1125 1125 1127 1127 1127 1129 1129 1129 1129 1127 1123 1125 1123 1121 1119 1119 1115 1115 1115 1114 1114 1114 1112 1110 1110 1108 1110 1110 1110 1108 1110 1108 1110 1110 1110 1110 1110 1110 1108 1108 1108 1108 1108 1106 1106 1106 1106 1106 1106 1104 1106 1106 1108 1110 1115 1119 1127 1135 1140 1144 1150 1156 0 0 0 0 0 1191 1191 1191 1198 1205 1207 1207 1207 1207 1209 1211 1207 1202 1198 1193 1189 1186 1184 1180 1175 1173 1169 1167 1163 1158 1154 1146 1140 1131 1125 1115 1110 1100 1094 1091 1087 1083 1078 1074 1072 1070 1070 1074 1074 1076 1078 1081 1083 1083 1083 1083 1083 1083 1083 1081 1081 1081 1081 1081 1081 1081 1081 1081 1081 1083 1083 1083 1083 1085 1087 1092 1096 1102 1106 1110 1114 1114 1114 1114 1110 1102 1094 1087 1078 1070 1068 1068 1068 1068 1068 1068 1070 1070 1070 1070 1068 1070 1070 1070 1072 1070 1072 1072 1076 1076 1078 1079 1081 1081 1081 1079 1081 1083 1083 0 1083 0 0 0 0 0 0 0 0 0 0 1074 1070 1067 1065 1060 1058 1054 1051 1046 0 0
1072 1068 1067 1067 1065 1065 1063 1061 1061 1061 1063 1067 1067 1068 1070 1070 1070 1070 1070 1068 1065 1061 1056 1052 1047 1042 1037 1032 1029 1024 1022 1019 1017 1017 1017 1017 1017 1017 1017 1017 1017 1017 1017 1019 1019 1019 1019 1019 1020 1020 1020 1020 1022 1022 1022 1022 1022 1020 1022 1022 1022 1022 1022 1022 1022 1024 1024 1024 1022 1022 1022 1020 1019 1015 1012 1011 1007 1004 1001 998 996 995 993 993 992 992 993 996 996 999 1004 1007 1012 1015 1019 1020 1022 1022 1024 1022 1022 1022 1022 1022 1024 1024 1025 1025 1027 1029 1029 1030 1030 1030 1030 1030 1030 1029 1027 1027 1025 1025 1024 1022 1022 1022 1022 1022 1020 1020 1022 1022 1024 1025 1027 1027 1029 1029 1030 1030 1032 1032 1032 1032 1032 1032 1030 1030 1029 1029 1027 1027 1027 1027 1027 1027 1029 1027 1027 1027 1025 1024 1022 1020 1020 1020 1022 1025 1029 1032 1034 1039 1042 1044 1047 1047 1046 1047 1047 1051 1052 1056 1060 1063 1067 1072 1074 1079 1083 1087 1092 1096 1100 1106 1108 1112 1112 1114 1114 1114 1112 1112 1112 1112 1112 1112 1112 1112 1112 1114 1115 1115 1115 1112 1110 1106 1102 1098 1094 1094 1098 1102 1108 1112 1117 1121 1129 1133 1135 1133 1129 1127 1125 1123 1121 1119 1117 1117 1115 1115 1114 1112 1112 1110 1110 1108 1108 1108 1108 1108 1110 1110 1112 1114 1115 1117 1119 1121 1123 1123 1123 1123 1123 1121 1121 1121 1119 1117 1117 1117 1119 1119 1117 1117 1119 1117 1117 1117 1119 1119 1119 1121 1121 1121 1121 1119 1117 1117 1117 1117 1115 1114 1112 1112 1112 1112 1112 1110 1108 1106 1102 1104 1106 1104 1106 1108 1106 1106 1108 1108 1108 1108 1108 1106 1108 1106 1106 1106 1106 1106 1106 1106 1106 1104 1104 1102 1102 1102 1104 1106 1110 1112 1119 1125 1127 1131 1135 1140 0 0 0 0 0 1180 1180 1184 1191 1198 1202 1200 1200 1200 1200 1200 1198 1193 1186 1182 1182 1180 1175 1173 1171 1169 1165 1163 1156 1152 1146 1140 1131 1125 1119 1112 1104 1098 1092 1091 1087 1083 1076 1074 1072 1070 1072 1072 1074 1076 1078 1081 1083 1083 1083 1083 1083 1085 1083 1083 1083 1083 1083 1081 1081 1081 1081 1081 1081 1081 1083 1083 1085 1085 1089 1092 1096 1100 1104 1106 1110 1110 1108 1106 1102 1096 1091 1083 1074 1070 1068 1068 1068 1068 1068 1070 1070 1070 1070 1072 1070 1070 1070 1068 1072 1072 1072 1072 1074 1076 1076 1078 1079 1079 1079 1081 1081 1083 1083 1085 1083 0 0 0 0 0 0 0 0 0 0 1076 1072 1070 1067 1063 1061 1060 0 0 0 0
1068 1065 1065 1063 1063 1061 1060 1060 1058 1060 1060 1063 1063 1065 1065 1067 1065 1065 1063 1060 1058 1052 1049 1044 1039 1035 1029 1027 1022 1020 1017 1015 1015 1015 1014 1014 1014 1014 1015 1015 1015 1015 1015 1015 1015 1015 1017 1017 1017 1017 1017 1017 1017 1017 1017 1017 1019 1017 1019 1019 1019 1019 1019 1019 1019 1020 1020 1020 1020 1020 1019 1019 1015 1012 1009 1007 1004 1001 998 995 993 992 990 990 990 990 990 993 995 996 1001 1006 1011 1014 1017 1019 1020 1020 1022 1022 1022 1022 1022 1022 1022 1024 1024 1024 1024 1025 1025 1025 1025 1025 1025 1025 1025 1025 1024 1024 1022 1020 1020 1019 1019 1019 1019 1019 1019 1019 1019 1020 1022 1022 1024 1025 1025 1027 1027 1029 1029 1030 1030 1030 1030 1029 1029 1027 1027 1025 1025 1024 1024 1024 1025 1025 1025 1025 1024 1024 1024 1022 1020 1019 1019 1019 1020 1024 1027 1029 1032 1034 1037 1040 1042 1042 1040 1042 1044 1046 1049 1051 1054 1060 1063 1067 1070 1074 1079 1083 1087 1092 1096 1100 1104 1108 1108 1110 1110 1110 1108 1108 1108 1106 1106 1106 1106 1106 1106 1108 1112 1112 1112 1108 1106 1102 1098 1092 1091 1087 1092 1096 1102 1110 1114 1119 1125 1131 1133 1131 1127 1123 1119 1117 1117 1115 1114 1112 1112 1110 1110 1110 1108 1106 1106 1104 1104 1104 1106 1106 1108 1108 1110 1110 1114 1115 1115 1115 1117 1117 1117 1117 1119 1117 1115 1115 1115 1114 1114 1114 1114 1114 1114 1114 1114 1114 1112 1112 1112 1112 1112 1112 1114 1114 1114 1112 1112 1112 1112 1110 1110 1110 1108 1108 1108 1108 1106 1106 1104 1102 1100 1100 1102 1100 1102 1104 1102 1104 1104 1106 1106 1106 1104 1104 1104 1104 1104 1104 1104 1104 1102 1104 1104 1102 1102 1100 1100 1100 1100 1102 1104 1106 1112 1115 1117 1119 1123 1125 0 0 0 0 0 1163 1167 1171 1184 1189 1191 1189 1189 1189 1189 1189 1189 1182 1178 1175 1173 1173 1171 1169 1167 1163 1160 1154 1150 1144 1135 1129 1123 1115 1112 1104 1098 1094 1091 1089 1085 1081 1076 1074 1072 1072 1074 1074 1076 1076 1079 1081 1081 1083 1085 1085 1085 1087 1087 1085 1085 1085 1085 1083 1083 1083 1083 1083 1083 1083 1083 1085 1085 1087 1089 1092 1096 1098 1102 1104 1106 1104 1104 1100 1096 1091 1085 1079 1072 1068 1068 1068 1068 1068 1068 1070 1070 1070 1070 1070 1070 1068 1068 1068 1068 1070 1070 1070 1070 1072 1074 1076 1078 1078 1079 1079 1081 1081 1083 1083 1083 1081 0 0 0 0 0 0 0 0 0 1078 1076 1072 1070 1067 1065 1063 0 0 0 0
1065 1061 1061 1061 1058 1058 1056 1056 1054 1056 1056 1060 1060 1061 1061 1061 1060 1058 1054 1052 1047 1044 1039 1035 1030 1027 1024 1020 1017 1015 1014 1012 1012 1011 1011 1011 1011 1012 1012 1012 1012 1012 1012 1012 1014 1014 1014 1014 1014 1014 1014 1014 1014 1014 1014 1014 1014 1014 1015 1015 1015 1015 1015 1015 1017 1017 1017 1017 1017 1017 1017 1015 1012 1009 1006 1003 1001 998 995 992 990 988 988 987 987 988 988 992 992 995 998 1003 1007 1011 1014 1017 1019 1020 1020 1020 1020 1020 1020 1022 1022 1022 1022 1022 1022 1022 1022 1022 1022 1022 1022 1022 1022 1020 1020 1020 1019 1017 1015 1015 1015 1015 1015 1015 1015 1015 1017 1017 1019 1020 1020 1022 1022 1024 1025 1025 1027 1027 1027 1027 1027 1027 1025 1025 1024 1024 1022 1022 1022 1022 1022 1022 1024 1022 1022 1022 1020 1020 1019 1017 1017 1017 1019 1022 1024 1027 1030 1032 1035 1037 1039 1039 1037 1037 1039 1040 1044 1047 1051 1054 1060 1065 1068 1072 1076 1079 1083 1089 1092 1096 1100 1102 1104 1106 1106 1106 1106 1104 1102 1100 1100 1100 1100 1098 1100 1102 1106 1106 1106 1102 1102 1098 1094 1089 1085 1083 1087 1091 1098 1104 1108 1114 1121 1127 1129 1127 1123 1119 1115 1114 1114 1112 1110 1110 1108 1106 1106 1106 1106 1104 1104 1100 1102 1104 1104 1104 1104 1104 1106 1108 1110 1112 1112 1112 1114 1114 1114 1114 1112 1112 1112 1112 1112 1112 1112 1112 1112 1112 1112 1110 1110 1110 1110 1108 1106 1106 1106 1106 1108 1108 1108 1106 1106 1106 1106 1108 1108 1106 1104 1104 1104 1104 1102 1100 1100 1100 1096 1096 1098 1098 1100 1100 1100 1100 1102 1102 1102 1100 1100 1100 1100 1102 1102 1102 1102 1102 1100 1100 1100 1100 1098 1098 1096 1096 1098 1098 1100 1100 1104 1108 1110 1110 1112 1112 0 0 0 0 0 0 0 1160 1173 1178 1178 1175 1175 1175 1173 1175 1173 1169 1167 1167 1167 1167 1163 1160 1156 1154 1152 1146 1142 1133 1125 1119 1114 1108 1102 1098 1094 1089 1087 1085 1081 1079 1076 1074 1074 1072 1074 1076 1078 1078 1079 1081 1083 1085 1087 1087 1087 1089 1089 1089 1089 1089 1087 1085 1085 1085 1083 1083 1083 1083 1083 1085 1087 1087 1089 1091 1096 1096 1100 1102 1102 1100 1098 1096 1091 1087 1081 1076 1070 1067 1067 1067 1067 1068 1068 1068 1068 1070 1070 1070 1070 1068 1067 1067 1067 1067 1067 1068 1068 1070 1072 1074 1076 1076 1078 1078 1078 1079 1079 1081 1081 1081 0 0 0 0 0 0 0 0 0 1079 1076 1076 1072 1070 1070 1067 1065 1063 0 0
1061 1058 1058 1058 1054 1054 1052 1051 1051 1051 1052 1054 1056 1056 1056 1054 1052 1051 1047 1044 1040 1035 1032 1027 1024 1020 1017 1015 1012 1011 1009 1009 1009 1007 1007 1007 1007 1007 1009 1009 1009 1009 1009 1011 1011 1011 1011 1012 1012 1011 1011 1011 1011 1011 1011 1011 1011 1011 1012 1012 1012 1012 1012 1012 1012 1012 1014 1014 1014 1014 1012 1011 1009 1006 1003 999 996 995 992 990 988 987 987 985 985 987 987 988 990 992 996 1001 1004 1009 1012 1015 1017 1019 1020 1020 1020 1020 1020 1020 1020 1020 1020 1020 1020 1020 1019 1019 1019 1019 1019 1019 1019 1017 1017 1017 1015 1014 1012 1012 1012 1012 1012 1012 1012 1014 1014 1015 1015 1017 1017 1019 1020 1020 1022 1022 1024 1024 1025 1025 1025 1024 1024 1022 1022 1020 1020 1020 1020 1020 1020 1020 1020 1020 1020 1020 1019 1019 1019 1017 1017 1015 1017 1022 1024 1027 1029 1030 1032 1034 1035 1034 1032 1034 1034 1037 1040 1044 1047 1051 1056 1061 1065 1068 1072 1076 1079 1085 1089 1092 1096 1100 1100 1102 1104 1102 1102 1102 1098 1098 1096 1094 1094 1094 1094 1098 1102 1102 1102 1098 1098 1094 1091 1087 1083 1079 1083 1087 1092 1098 1106 1112 1117 1123 1127 1123 1119 1115 1112 1110 1110 1106 1106 1104 1104 1104 1104 1102 1102 1100 1100 1098 1100 1102 1102 1102 1102 1102 1104 1104 1106 1106 1106 1108 1108 1108 1108 1108 1108 1106 1106 1106 1106 1106 1106 1106 1106 1106 1106 1106 1106 1106 1104 1104 1104 1104 1102 1102 1102 1102 1104 1102 1102 1102 1102 1102 1102 1102 1100 1100 1100 1100 1098 1098 1096 1094 1092 1094 1094 1094 1096 1096 1096 1096 1096 1098 1098 1098 1096 1096 1096 1098 1098 1098 1098 1098 1098 1096 1098 1098 1096 1094 1094 1094 1094 1094 1094 1094 1098 1100 1100 1100 1100 1098 1098 1100 1106 1108 0 1127 1133 0 1158 1165 1163 1163 1163 1163 1160 1160 1160 1158 1156 1156 1156 1156 1154 1152 1148 1146 1142 1138 1129 1121 1115 1110 1106 1100 1096 1091 1089 1085 1083 1081 1079 1078 1074 1074 1074 1074 1076 1076 1078 1079 1081 1083 1083 1085 1087 1089 1089 1091 1091 1091 1089 1089 1087 1087 1085 1083 1083 1081 1081 1081 1083 1083 1085 1085 1087 1089 1092 1092 1094 1096 1096 1094 1094 1091 1087 1083 1079 1074 1068 1067 1067 1067 1067 1067 1067 1067 1067 1067 1068 1068 1067 1067 1067 1067 1067 1067 1065 1065 1067 1067 1068 1070 1072 1072 1074 1074 1076 1078 1078 1078 1078 1078 0 0 0 0 0 0 0 0 0 1079 1079 1078 1076 1074 1074 1070 1070 1068 0 0
1058 1054 1054 1052 1052 1051 1049 1047 1047 1047 1049 1051 1051 1051 1051 1049 1047 1044 1040 1037 1034 1029 1024 1020 1017 1014 1012 1009 1007 1007 1006 1004 1004 1004 1004 1004 1004 1004 1004 1006 1006 1006 1007 1007 1007 1007 1007 1007 1007 1007 1007 1007 1007 1007 1007 1007 1007 1007 1007 1007 1009 1009 1009 1009 1009 1009 1009 1009 1009 1009 1007 1006 1004 1001 998 996 993 992 990 987 985 985 985 985 985 985 985 987 988 992 995 998 1003 1006 1009 1012 1015 1017 1019 1020 1020 1020 1020 1020 1020 1020 1019 1019 1019 1019 1017 1017 1017 1017 1017 1015 1015 1014 1014 1012 1011 1011 1009 1009 1007 1007 1007 1007 1009 1009 1011 1011 1012 1012 1014 1015 1015 1017 1019 1020 1020 1022 1022 1024 1022 1022 1020 1020 1019 1019 1019 1019 1019 1019 1019 1019 1019 1019 1019 1019 1017 1017 1015 1015 1015 1015 1017 1020 1022 1025 1027 1029 1030 1032 1032 1030 1029 1029 1030 1034 1035 1039 1044 1047 1052 1058 1061 1065 1070 1074 1078 1081 1085 1091 1094 1096 1098 1100 1100 1100 1100 1098 1096 1094 1091 1091 1091 1091 1091 1094 1098 1100 1100 1096 1094 1091 1089 1083 1079 1078 1079 1083 1089 1094 1100 1108 1114 1119 1121 1117 1114 1110 1106 1106 1104 1102 1100 1100 1100 1100 1102 1100 1100 1098 1098 1098 1098 1098 1098 1096 1096 1098 1098 1098 1100 1100 1100 1102 1102 1102 1102 1100 1100 1100 1100 1100 1100 1100 1100 1100 1100 1100 1100 1100 1100 1100 1098 1098 1098 1096 1096 1096 1096 1096 1096 1096 1096 1096 1096 1096 1096 1096 1094 1094 1094 1094 1092 1092 1091 1091 1091 1091 1091 1091 1092 1092 1094 1092 1094 1092 1094 1094 1094 1092 1094 1092 1094 1094 1096 1094 1094 1094 1094 1094 1092 1091 1091 1091 1091 1091 1091 1089 1091 1092 1091 1091 1089 1087 1087 1089 1091 1091 0 1104 1112 1125 0 0 1148 1146 1148 0 1146 1146 1148 1144 1144 1146 1144 1144 1144 1142 1140 1133 1131 1123 1117 1108 1102 1096 1092 1089 1085 1083 1081 1079 1078 1076 1076 1074 1074 1074 1074 1074 1076 1078 1078 1079 1081 1081 1083 1085 1087 1087 1089 1092 1091 1092 1092 1091 1091 1087 1087 1083 1083 1081 1081 1079 1081 1081 1083 1083 1085 1085 1089 1089 1089 1091 1091 1089 1087 1085 1081 1079 1076 1072 1068 1065 1065 1065 1065 1065 1065 1065 1065 1065 1065 1065 1067 1065 1063 1063 1063 1063 1063 1061 1063 1063 1065 1067 1068 1070 1072 1072 1074 1076 1076 1078 1078 1076 1078 0 0 0 0 0 0 0 0 1081 1081 1079 1079 1078 1076 1076 1074 1072 0 0
1054 1049 1049 1049 1049 1047 1046 1044 1044 1044 1046 1046 1047 1047 1046 1044 1042 1039 1035 1030 1027 1020 1017 1014 1011 1009 1006 1006 1004 1003 1001 1001 999 999 999 999 999 999 1001 1001 1003 1003 1003 1004 1004 1004 1004 1004 1004 1004 1004 1003 1003 1004 1004 1004 1004 1004 1004 1004 1004 1004 1004 1004 1004 1004 1006 1004 1004 1004 1003 1001 999 998 995 992 990 988 987 985 984 984 984 984 984 985 985 985 987 988 992 995 999 1003 1007 1011 1012 1015 1019 1019 1020 1020 1020 1020 1019 1019 1019 1019 1019 1017 1017 1015 1015 1015 1014 1014 1012 1012 1011 1009 1007 1007 1006 1006 1004 1004 1004 1004 1006 1006 1006 1007 1007 1009 1009 1011 1012 1014 1015 1017 1019 1020 1020 1020 1020 1020 1019 1019 1017 1017 1015 1015 1015 1015 1015 1017 1017 1017 1015 1015 1015 1015 1014 1014 1014 1014 1015 1019 1020 1022 1024 1025 1027 1029 1029 1027 1025 1025 1027 1029 1032 1035 1039 1044 1047 1052 1058 1061 1067 1070 1076 1081 1085 1089 1092 1094 1096 1098 1098 1096 1096 1094 1092 1089 1089 1087 1087 1085 1087 1091 1094 1098 1096 1094 1092 1089 1087 1081 1078 1076 1078 1079 1085 1091 1094 1100 1108 1114 1114 1110 1108 1104 1102 1100 1100 1098 1098 1098 1098 1098 1098 1098 1098 1098 1096 1096 1094 1094 1092 1092 1092 1092 1092 1092 1094 1094 1094 1094 1096 1096 1096 1096 1094 1094 1094 1094 1094 1094 1094 1094 1094 1094 1094 1094 1094 1094 1092 1092 1092 1091 1091 1091 1091 1091 1091 1091 1091 1091 1091 1089 1089 1091 1089 1089 1091 1091 1089 1089 1089 1087 1087 1087 1089 1089 1089 1089 1091 1091 1091 1091 1091 1091 1089 1089 1091 1091 1091 1092 1092 1092 1091 1091 1091 1091 1089 1087 1087 1085 1087 1085 1087 1085 1085 1083 1083 1081 1081 1078 1076 1078 1076 1078 0 1089 1092 1102 1117 1127 1131 1131 0 1133 1133 1133 1135 1133 1133 1131 1133 1133 1131 1131 1125 0 1114 1106 1100 1092 1089 1083 1081 1079 1078 1076 1076 1074 1074 1072 1072 1072 1070 1072 1072 1074 1076 1078 1078 1079 1081 1083 1083 1087 1089 1091 1091 1092 1092 1094 1092 1092 1091 1087 1085 1083 1081 1079 1078 1078 1078 1079 1079 1081 1081 1083 1085 1085 1085 1085 1085 1083 1081 1081 1078 1074 1072 1068 1065 1065 1063 1063 1063 1063 1063 1063 1063 1065 1065 1065 1065 1063 1063 1063 1063 1063 1061 1061 1060 1061 1063 1065 1067 1068 1068 1068 1070 1074 1074 1074 1074 1074 0 0 0 0 0 0 0 0 0 1083 1081 1081 1079 1078 1078 1078 1076 1074 0 0
1049 1046 1046 1046 1046 1044 1042 1040 1040 1042 1042 1042 1044 1042 1040 1039 1035 1032 1029 1024 1019 1015 1012 1009 1006 1004 1003 1001 999 998 998 996 996 996 996 996 996 996 998 998 999 999 999 999 999 1001 999 1001 999 999 999 999 999 999 999 999 999 999 1001 1001 1001 1001 1001 1001 999 999 999 999 999 999 998 996 995 993 990 988 987 985 984 984 982 982 982 984 984 984 984 985 985 987 990 993 998 1001 1006 1009 1012 1015 1019 1019 1020 1019 1019 1019 1019 1019 1019 1019 1017 1017 1015 1015 1014 1014 1012 1011 1011 1009 1007 1006 1004 1004 1003 1001 1001 1001 999 1001 1001 1003 1003 1003 1004 1004 1006 1007 1009 1011 1012 1014 1015 1017 1017 1017 1017 1017 1015 1015 1014 1014 1014 1014 1014 1014 1014 1014 1014 1014 1014 1014 1012 1012 1012 1012 1012 1012 1014 1017 1019 1020 1022 1024 1024 1025 1025 1024 1022 1022 1024 1025 1029 1032 1035 1040 1044 1049 1054 1058 1063 1068 1074 1078 1081 1087 1091 1092 1094 1094 1094 1092 1092 1091 1087 1083 1081 1079 1079 1079 1081 1085 1091 1092 1094 1092 1091 1089 1083 1079 1076 1074 1074 1076 1079 1083 1087 1092 1098 1102 1102 1100 1098 1096 1096 1096 1096 1094 1096 1096 1098 1098 1098 1096 1098 1096 1094 1092 1092 1091 1089 1089 1089 1087 1087 1089 1089 1091 1089 1091 1091 1091 1091 1091 1089 1089 1089 1089 1089 1089 1089 1089 1089 1089 1089 1089 1089 1089 1089 1087 1087 1087 1087 1087 1087 1087 1087 1085 1085 1085 1085 1085 1083 1083 1083 0 1083 1083 1083 1085 1085 1083 1083 1085 1085 1085 1087 1087 1087 1087 1087 1087 1085 1087 1087 1085 1087 1087 1089 1089 1089 1089 1087 1087 1087 1087 1085 1083 1083 1081 1081 1083 1081 1079 1079 1078 1078 1076 1074 1072 1068 1068 1067 1067 0 0 0 1085 1098 1108 1114 1117 1119 1119 1121 1123 1123 1123 1121 1121 1121 1119 1119 1117 1112 1102 1096 1091 1085 1078 1076 1072 1072 1072 1072 1070 1072 1070 1070 1070 1068 1068 1068 1068 1070 1072 1074 1074 1076 1078 1081 1081 1083 1087 1089 1089 1091 1092 1092 1091 1091 1089 1087 1083 1081 1078 1074 1074 1072 1072 1074 1074 1076 1076 1079 1079 1081 1081 1081 1081 1079 1079 1076 1074 1072 1068 1067 1067 1063 1061 1061 1061 1061 1061 1061 1061 1061 1063 1063 1063 1063 1063 1063 1063 1061 1061 1061 1060 1060 1061 1061 1063 1065 1065 1067 1067 1068 1070 1070 1070 1072 1070 0 0 0 0 0 0 0 0 0 1085 1083 1083 1081 1079 1079 1078 1076 1074 0 0
1046 1042 1042 1042 1042 1040 1039 1037 1037 1039 1040 1039 1039 1039 1035 1034 1030 1027 1024 1019 1015 1011 1007 1004 1003 1001 999 998 996 995 993 993 992 992 992 992 992 993 993 995 996 996 996 996 996 996 996 996 996 996 996 996 996 996 996 996 996 996 996 996 996 996 996 996 995 995 995 995 995 995 993 992 990 988 987 984 984 982 981 981 981 981 981 982 982 982 982 984 985 985 988 992 996 999 1004 1007 1011 1014 1017 1019 1020 1019 1019 1020 1020 1020 1019 1019 1017 1017 1015 1014 1012 1012 1011 1009 1007 1006 1004 1003 1001 999 998 998 996 996 996 996 998 998 998 999 999 1001 1001 1003 1004 1006 1009 1011 1012 1014 1014 1014 1014 1014 1014 1012 1012 1011 1011 1011 1011 1011 1011 1011 1011 1011 1011 1011 1009 1009 1009 1011 1009 1011 1014 1017 1019 1019 1020 1022 1022 1022 1022 1020 1019 1020 1022 1022 1025 1029 1032 1035 1040 1046 1051 1054 1060 1065 1070 1074 1079 1083 1087 1089 1091 1091 1091 1089 1089 1085 1081 1076 1074 1074 1072 1072 1074 1076 1085 1087 1091 1089 1087 1085 1081 1079 1076 1072 1074 1072 1074 1078 1081 1085 1087 1091 1091 1089 1089 1089 1091 1091 1091 1092 1092 1096 1096 1098 1098 1096 1096 1094 1092 1091 1089 1087 1085 1085 1083 1081 1083 1083 1081 1083 1083 1085 1085 1083 1085 1083 1083 1083 1083 1083 1083 1083 1083 1083 1083 1083 1083 1083 1083 1083 1081 1081 1081 1081 1081 1081 1081 1081 1081 1079 1079 1079 1079 1078 1078 1078 0 1076 1076 1076 1078 1078 1078 1078 1079 1079 1081 1081 1081 1081 1081 1083 1083 1083 1083 1083 1083 1083 1083 1085 1085 1085 1085 1085 1083 1081 1081 1081 1081 1079 1079 1078 1078 1078 1078 1076 1074 1074 1072 1070 1068 1065 1063 1061 1060 1060 1061 0 0 1067 1078 1087 0 1098 1102 1104 1104 1106 1110 1108 1108 1106 1104 1102 1102 1098 1092 1085 1079 1074 1068 1067 1065 1065 1065 1067 1068 1067 1067 1067 1067 1067 1067 1065 1065 1067 1067 1068 1070 1072 1072 1074 1076 1078 1079 1083 1087 1089 1091 1092 1092 1092 1091 1089 1085 1081 1078 1076 1072 1068 1068 1068 1070 1070 1072 1074 1074 1074 1076 1074 1076 1074 1074 1072 1070 1068 1067 1065 1065 1063 1060 1060 1060 1060 1060 1058 1058 1060 1060 1061 1061 1063 1063 1063 1063 1061 1061 1060 1060 1060 1058 1060 1060 1061 1063 1065 1065 1063 1065 1067 1068 1070 1070 1070 1072 0 0 0 0 0 0 0 1087 1087 1085 1083 1083 1081 1079 1079 1078 1078 0 0
1040 1039 1039 1039 1039 1037 1035 1035 1035 1035 1037 1037 1035 1034 1032 1029 1025 1022 1019 1015 1012 1007 1004 1001 999 998 996 993 992 990 990 988 988 988 988 988 988 990 990 992 993 993 993 993 993 993 993 992 992 992 992 992 992 992 992 992 993 993 993 993 992 992 992 992 990 990 990 990 988 988 988 987 985 984 982 981 979 979 978 978 979 979 981 981 982 982 982 984 984 984 987 990 995 998 1003 1006 1011 1014 1017 1019 1019 1019 1020 1020 1020 1020 1019 1017 1017 1017 1015 1014 1012 1009 1007 1006 1004 1003 1001 999 998 996 995 993 993 993 993 993 995 995 995 995 996 996 998 999 1001 1003 1006 1007 1011 1011 1011 1011 1011 1011 1011 1009 1009 1009 1007 1007 1007 1007 1007 1007 1006 1006 1007 1007 1007 1007 1007 1007 1007 1009 1011 1014 1015 1017 1019 1020 1020 1020 1020 1019 1017 1017 1019 1020 1022 1025 1029 1032 1037 1042 1047 1051 1056 1061 1067 1072 1076 1081 1085 1085 1089 1087 1087 1085 1083 1078 1072 1068 1067 1065 1063 1063 1065 1068 1076 1081 1085 1085 1083 1083 1079 1079 1076 1072 1072 1070 1072 1074 1076 1076 1078 1081 1079 1079 1079 1081 1083 1085 1089 1091 1092 1094 1096 1096 1096 1094 1094 1092 1089 1087 1085 1081 1081 1079 1078 1076 1076 1076 1076 1076 1076 1078 1076 1076 1074 1076 1076 1074 1074 1074 1076 1076 1076 1076 1076 1076 1076 1076 1076 1076 1074 1074 1074 1074 1074 1074 1074 1074 1074 1072 1072 1072 1072 1070 1070 1070 1068 1068 1068 1070 1070 1070 1072 1070 1072 1072 1072 1072 1074 1074 1076 1076 1076 1078 1078 1079 1079 1079 1078 1079 1079 1079 1079 1078 1076 1074 1074 1074 1072 1074 1074 1072 1074 1076 1076 1072 1070 1068 1065 1065 1061 1058 1056 1054 1049 1049 1049 1047 1047 1049 1056 1061 1067 1076 1079 1083 1087 1092 1092 1094 1096 1092 0 1089 0 1081 1076 1070 1065 1061 1058 1056 1058 1060 1061 1061 1063 1061 1061 1061 1063 1061 1061 1061 1061 1063 1065 1065 1067 1067 1068 1070 1070 1072 1074 1079 1081 1085 1091 1091 1091 1091 1089 1087 1081 1078 1074 1070 1067 1065 1067 1067 1068 1070 1072 1072 1072 1074 1074 1070 1068 1070 1068 1067 1067 1063 1063 1061 1061 1060 1058 1058 1056 1056 1056 1056 1056 1056 1058 1058 1060 1061 1061 1061 1060 1060 1061 1060 1060 1058 1058 1060 1060 1061 1063 1063 1063 1063 1065 1067 1067 1068 1070 1070 1070 0 0 0 0 0 0 0 1087 1085 1085 1083 1083 1081 1081 1081 1079 1079 0 0
1037 1035 1035 1035 1035 1035 1034 1034 1034 1034 1034 1034 1032 1030 1027 1025 1022 1019 1015 1012 1009 1004 1003 999 996 995 993 990 988 987 987 985 985 985 985 985 985 987 987 988 990 990 990 990 990 990 988 988 988 988 988 988 988 988 988 988 988 988 988 988 988 988 987 987 985 985 985 985 984 984 982 982 981 979 978 978 976 976 976 976 976 978 979 979 981 981 981 982 982 984 985 990 993 998 1001 1006 1011 1014 1017 1019 1020 1020 1020 1020 1020 1020 1019 1019 1017 1017 1014 1012 1011 1007 1006 1003 1001 999 998 995 993 993 992 990 990 990 990 990 992 992 992 992 992 993 995 996 998 999 1003 1004 1006 1007 1007 1007 1007 1007 1007 1006 1006 1004 1004 1003 1003 1003 1003 1003 1003 1003 1003 1004 1004 1004 1004 1004 1004 1006 1007 1011 1012 1014 1015 1017 1019 1019 1017 1017 1015 1015 1017 1019 1020 1024 1025 1029 1034 1039 1044 1049 1054 1060 1067 1072 1074 1079 1083 1083 1085 1083 1081 1081 1076 1072 1067 1061 1058 1058 1056 1056 1058 1063 1070 1074 1081 1081 1081 1081 1079 1078 1076 1074 1072 1068 1070 1068 1070 1070 1072 1072 1070 1070 1072 1074 1078 1081 1085 1089 1089 1092 1092 1094 1094 1092 1091 1087 1083 1081 1078 1076 1074 1072 1070 1068 1068 1068 1067 1067 1067 1067 1067 1065 1067 1067 1067 1067 1067 1067 1067 1067 1067 1067 1067 1067 1067 1067 1067 1067 1067 1067 1067 1065 1065 1065 1065 1065 1065 1065 1063 1063 1063 1061 1061 1061 1061 1061 1061 1061 1061 1063 1063 1063 1063 1063 1063 1065 1067 1067 1067 1067 1070 1070 1072 1072 1074 1074 1074 1072 1074 1072 1070 1068 1067 1065 1065 1067 1067 1067 1068 1068 1070 1072 1072 1070 1067 1065 1063 1060 1056 1051 1047 1046 1042 1039 1039 1035 1035 1037 1039 1046 1054 1060 1063 1068 1070 1076 1078 1079 1078 1076 1072 1068 1065 1063 1056 1054 1051 1051 1049 1049 1051 1051 1054 1054 1056 1054 1056 1056 1056 1056 1056 1058 1058 1058 1060 1060 1061 1060 1061 1063 1063 1065 1068 1072 1078 1081 1085 1089 1089 1087 1085 1081 1078 1072 1070 1067 1063 1061 1063 1063 1065 1068 1070 1068 1070 1068 1068 1065 1063 1065 1063 1063 1061 1060 1060 1060 1058 1058 1056 1054 1054 1054 1054 1054 1054 1054 1054 1056 1058 1060 1060 1060 1060 1058 1060 1060 1058 1058 1056 1058 1060 1061 1063 1063 1063 1063 1063 1065 1067 1068 1068 1068 1070 0 0 0 0 0 0 0 1081 1081 1081 1081 1081 1079 1079 1079 1078 1078 0 0
1034 1032 1034 1034 1032 1032 1032 1030 1032 1032 1032 1030 1029 1027 1024 1022 1019 1015 1011 1009 1006 1001 999 996 993 992 988 987 985 984 984 982 982 981 982 982 982 984 985 985 987 987 987 987 987 985 985 985 985 984 985 985 985 985 985 985 987 987 985 985 985 984 982 982 981 981 979 979 979 978 978 976 976 975 975 973 973 973 973 973 975 975 976 978 978 979 979 979 981 982 984 988 993 996 999 1004 1009 1014 1017 1019 1020 1020 1020 1020 1020 1020 1019 1019 1017 1015 1014 1011 1009 1006 1003 999 998 996 993 992 990 988 988 988 987 987 987 987 987 988 988 987 988 990 990 992 995 996 998 1001 1003 1004 1004 1004 1004 1004 1003 1003 1001 1001 999 999 998 998 999 998 998 998 999 999 1001 1001 1001 1001 1001 1003 1006 1007 1009 1011 1012 1014 1015 1015 1015 1014 1014 1014 1015 1017 1019 1020 1024 1025 1030 1035 1040 1044 1049 1056 1063 1068 1072 1076 1079 1079 1081 1079 1078 1076 1070 1067 1061 1054 1052 1052 1051 1052 1052 1058 1063 1070 1076 1078 1079 1078 1078 1076 1074 1072 1070 1068 1067 1065 1067 1065 1065 1063 1063 1065 1067 0 1074 1078 1081 1085 1087 1091 1092 1091 1091 1087 1083 1079 1076 1074 1070 1067 1067 1063 1061 1061 1060 1060 1056 1056 1058 1058 1056 1056 1056 1056 1056 1056 1056 1056 1056 1056 1056 1056 1056 1056 1056 1056 1056 1058 1058 1058 1058 1056 1056 1056 1056 1056 1056 1054 1054 1054 1054 1052 1052 1052 1052 1052 1052 1052 1054 1054 1056 1056 1056 1056 1056 1058 1058 1060 1060 1063 1063 1065 1065 1068 1068 1068 1068 1068 1065 1063 1063 1060 1058 1056 1058 1058 1060 1061 1063 1063 1065 1068 1068 1065 1061 1060 1058 1054 1051 1046 1042 1037 1034 1030 1029 1025 1025 1025 1029 1035 1042 1046 1051 1056 1054 1060 1061 1063 1060 1054 0 1047 1044 1044 1040 1040 1040 1040 1042 1044 1044 1046 1047 1049 1051 1049 1049 1051 1051 1052 1052 1052 1052 1054 1054 1052 1052 1054 1054 1054 1056 1056 1060 1063 1068 1074 1079 1081 1083 1079 1078 1074 1072 1067 1063 1060 1058 1056 1058 1060 1061 1063 1065 1065 1065 1063 1061 1060 1058 1058 1058 1058 1056 1056 1056 1056 1056 1054 1052 1052 1051 1051 1051 1051 1052 1052 1052 1054 1056 1058 1058 1058 1058 1058 1060 1058 1058 1058 1058 1060 1060 1061 1061 1063 1061 1061 1063 1063 1065 1067 1068 1068 1070 1072 1074 1076 0 0 1078 1078 0 1078 1078 1078 1079 1078 1076 1076 1074 1072 0 0
1030 1029 1030 1030 1030 1029 1029 1030 1030 1029 1029 1027 1025 1024 1020 1019 1015 1012 1009 1004 1003 999 996 993 990 988 985 984 982 981 981 979 979 979 979 979 981 981 982 984 984 984 984 984 984 982 982 982 981 981 981 981 981 982 982 984 984 982 982 982 981 981 978 978 976 976 975 975 975 973 973 973 972 972 970 970 970 970 970 970 972 973 975 975 976 976 976 978 979 979 982 987 992 995 999 1004 1009 1014 1017 1019 1020 1020 1020 1020 1020 1020 1019 1019 1017 1014 1012 1009 1006 1003 999 996 995 992 990 988 987 987 985 985 985 984 984 984 984 984 984 984 985 985 987 988 990 993 995 996 998 999 999 999 999 999 999 998 998 996 995 995 995 995 995 993 995 995 995 996 996 996 998 998 998 999 1003 1004 1006 1007 1009 1011 1011 1012 1012 1011 1011 1012 1014 1015 1017 1017 1020 1024 1027 1032 1037 1042 1046 1052 1060 1065 1070 1074 1076 1076 1076 1076 1072 1068 1063 1060 1052 1049 1046 1044 1044 1044 1047 1052 1060 1067 1070 1074 0 1076 1076 1074 1074 1072 1068 1067 1065 1061 1061 1060 1058 1058 1056 1058 1061 1065 1068 1074 1076 1079 1083 1085 1089 1087 1085 1081 1078 1074 1068 1067 1063 1060 1058 1054 1052 1052 1051 1049 1049 1049 1047 1047 1047 1047 1047 1047 1047 1047 1047 1047 1047 1047 1047 1047 1047 1047 1049 1049 1049 1049 1049 1049 1049 1049 1049 1049 1049 1049 1047 1047 1047 1047 1046 1046 1046 1046 1046 1047 1047 1047 1047 1049 1049 1049 1049 1051 1051 1051 1052 1054 1054 1056 1058 1060 1061 1063 1065 1063 1063 1061 1058 1056 1054 1052 1049 1047 1047 1049 1051 1052 1056 1058 1060 1063 1063 1061 1058 1056 1054 1051 1046 1040 1035 1030 1025 1024 1020 1017 1017 0 1019 1024 1029 1034 1037 1040 1037 1040 1042 1040 1035 1032 1029 1025 1024 1025 1025 1027 1029 1032 1034 1037 1040 1040 1042 1044 1044 1046 1046 1046 1047 1047 1047 1047 1049 1049 1047 1047 1047 1046 1046 1046 1046 1047 1051 1054 1058 1065 1068 1072 1072 1070 1070 1068 1063 1060 1056 1052 1051 1051 1051 1054 1056 1060 1061 1061 1060 1058 1056 1054 1052 1052 1052 1052 1052 1052 1052 1052 1052 1052 1049 1049 1047 1047 1047 1049 1049 1049 1051 1052 1054 1054 1056 1056 1056 1058 1058 1058 1058 1058 1058 1060 1060 1061 1061 1061 1061 1061 1061 1061 1063 1065 1067 1067 1068 1068 1072 1072 1072 1072 1072 1074 1074 1074 1074 1074 1076 1076 1072 1072 1072 1070 0 0
1027 1025 1027 1029 1027 1027 1027 1029 1027 1029 1027 1025 1024 1020 1019 1015 1012 1009 1006 1003 999 996 993 990 988 985 982 981 979 978 978 976 976 976 976 978 978 979 979 981 981 981 981 981 979 979 979 978 978 978 978 978 978 978 978 979 979 979 979 978 978 976 976 973 973 972 972 970 970 969 969 967 967 967 966 966 966 967 967 967 969 970 972 973 973 975 975 975 978 978 982 985 992 995 999 1004 1011 1014 1017 1019 1020 1020 1020 1020 1020 1020 1020 1019 1015 1014 1011 1007 1004 1001 996 993 992 988 987 985 984 984 984 982 982 982 982 982 982 982 981 981 982 982 984 985 987 988 992 993 995 995 996 996 996 995 995 993 993 992 992 990 990 990 990 990 990 990 990 992 992 993 993 993 995 996 998 999 1001 1003 1004 1006 1007 1007 1007 1007 1007 1011 1011 1012 1014 1015 1019 1020 1024 1029 1032 1037 1044 1051 1058 1065 1068 1070 1072 1074 1072 1070 1068 1063 1058 1052 1047 1044 1040 1039 1039 1040 1044 1047 1054 1061 1068 1072 1074 1074 1074 1072 1072 1068 1067 1061 1061 1060 1056 1056 1054 1052 1052 1052 1056 1060 1065 1068 1072 1076 1079 1081 1083 1079 1078 1074 1070 1067 1063 1060 1056 1052 1049 1047 1046 1044 1042 1042 1040 1040 1040 1040 1040 1040 1040 1040 1040 1040 1040 1040 1040 1040 1040 1040 1040 1040 1040 1042 1042 1042 1042 1042 1042 1042 1042 1042 1042 1042 1040 1040 1040 1040 1040 1040 1040 1040 1040 1040 1040 1042 1042 1042 1042 1044 1044 1044 1046 1046 1047 1047 1049 1051 1052 1054 1058 1060 1061 1061 1058 1054 1052 1049 1047 1044 1042 1039 1040 1042 1044 1046 1047 1051 1052 1058 1058 1056 1052 1051 1049 1046 1040 1035 1030 1024 1019 1015 1014 1012 1011 1011 1014 1017 1020 1022 1024 1025 1024 1022 1022 0 0 0 1009 1007 1007 1012 1015 1019 1020 1025 1029 1032 1034 1035 1037 1039 1040 1040 1040 1042 1042 1042 1044 1044 1044 1042 1040 1040 1039 1039 1037 1037 1037 1039 1042 1046 1049 1054 1058 1061 1061 1061 1060 1058 1054 1051 1049 1047 1046 1046 1047 1051 1052 1056 1058 1058 1056 1052 1051 1049 1047 1049 1049 1049 1049 1049 1049 1047 1049 1047 1047 1046 1044 1044 1044 1046 1046 1047 1047 1049 1051 1052 1052 1052 1052 1054 1054 1056 1056 1056 1056 1058 1060 1061 1061 1061 1061 1061 1061 1060 1061 1061 1065 1063 1065 1065 1065 1067 1067 1067 1067 1067 1068 1068 1068 1068 1070 1070 1068 1068 1068 1067 0 0
1024 1022 1025 1025 1025 1025 1025 1025 1027 1025 1025 1024 1020 1017 1015 1012 1009 1006 1003 999 996 993 990 987 984 982 981 978 976 975 975 975 975 975 975 975 976 976 978 978 978 978 978 978 978 976 976 976 975 975 975 975 975 975 975 976 976 976 976 975 975 973 972 970 970 969 967 966 966 966 964 964 964 963 963 963 963 963 963 964 966 967 969 970 970 970 972 973 975 978 981 984 990 993 998 1004 1009 1014 1017 1019 1020 1020 1020 1020 1020 1020 1019 1017 1015 1012 1009 1004 1001 996 993 990 987 984 984 982 982 981 981 981 981 981 979 979 979 979 979 979 979 979 981 982 984 985 987 988 990 992 992 992 992 992 990 990 988 988 987 987 987 985 985 985 985 985 987 987 988 988 990 990 990 993 993 995 996 998 999 1003 1003 1004 1004 1004 1006 1007 1009 1011 1012 1014 1015 1017 1020 1025 1029 1034 1040 1047 1054 1060 1065 1067 1068 1068 1067 1065 1060 1056 1052 1047 1040 1037 1035 1035 1034 1035 1039 1044 1049 1056 1063 1067 1070 1070 1070 1070 1068 1067 1063 1060 1058 1056 1052 1051 1049 1049 1049 1049 1052 1054 1060 1063 1065 1070 1072 1074 1076 1074 1070 1068 1063 1060 1054 1052 1049 1044 1044 1040 1039 1039 1037 1035 1035 1035 1035 1035 1035 1035 1035 1035 1035 1035 1035 1035 1035 1035 1035 1035 1035 1035 1035 1035 1035 1037 1037 1037 1037 1037 1037 1037 1037 1035 1035 1035 1035 1034 1034 1035 1035 1035 1035 1035 1035 1035 1035 1037 1037 1037 1039 1039 1039 1040 1042 1042 1044 1046 1047 1049 1054 1054 1056 1054 1052 1049 1046 1044 1040 1037 1034 1032 1032 1034 1037 0 0 0 1049 1052 1054 1052 1049 1046 1044 1040 1037 1030 1024 1019 1014 1011 1009 1007 1006 1006 1009 1012 1014 1015 1015 1015 1012 1011 1009 0 999 999 998 998 999 1004 1007 1011 1015 1019 1022 1025 1029 1030 1034 1034 1035 1035 1035 1037 1039 1039 1039 1039 1039 1037 1035 1034 1032 1030 1030 1030 1030 1030 1034 1037 1040 1044 1047 1051 1051 1049 1049 1047 1044 1042 1040 1039 1039 1040 1044 1046 1047 1049 1054 1051 1049 1047 1046 1044 1042 1044 1044 1044 1044 1046 1046 1046 1046 1046 1044 1042 1040 1040 1040 1042 1042 1044 1046 1046 1047 1049 1051 1051 1051 1051 1052 1052 1052 1054 1056 1056 1058 1060 1061 1061 1061 1060 1060 1060 1060 1060 1061 1061 1060 1060 1060 1061 1060 1061 1061 1060 1061 1061 1061 1063 1063 1065 1063 1061 1061 1061 1060 0
1020 1020 1022 1022 1022 1024 1024 1024 1024 1024 1022 1020 1017 1014 1011 1007 1004 1001 998 995 992 988 987 984 981 979 978 976 973 973 972 972 972 972 972 973 973 975 975 975 976 976 976 976 976 975 973 973 973 973 972 972 973 973 973 973 973 973 973 972 972 970 969 967 967 966 964 963 963 961 961 960 960 959 959 959 959 960 960 961 963 964 966 967 967 967 969 970 973 975 979 984 988 993 998 1004 1009 1014 1017 1019 1019 1019 1019 1019 1020 1019 1019 1017 1014 1011 1006 1003 998 993 990 987 982 981 981 979 979 979 979 979 979 978 978 978 978 978 976 976 976 978 978 979 981 982 984 985 987 987 987 987 987 987 987 985 985 984 984 984 982 982 982 982 982 982 984 984 985 985 987 985 987 988 990 990 992 993 996 998 998 999 999 1001 1003 1004 1006 1007 1011 1011 1014 1015 1019 1022 1025 1030 1037 1042 1051 1058 1060 1063 1061 1063 1061 1060 1054 1052 1047 1040 1037 1032 1030 1030 1030 1034 1035 1040 1044 1049 1058 1061 1067 1068 1067 1067 1065 1063 1060 1056 1052 1051 1049 1047 1046 1046 1046 1046 1049 1051 1056 1058 1060 1063 1065 1067 1067 1065 1061 1058 1054 1051 1046 1042 1039 1037 1035 1032 1032 1030 1030 1029 1029 1029 1029 1029 1029 1029 1029 1029 1029 1029 1029 1029 1029 1029 1029 1029 1029 1029 1029 1030 1030 1030 1030 1030 1030 1030 1030 1030 1030 1030 1030 1029 1029 1029 1029 1029 1029 1029 1029 1030 1030 1030 1030 1030 1032 1032 1032 1034 1034 1034 1035 1037 1039 1040 1042 1044 1049 1049 1052 1051 1049 1044 1039 1037 1034 1030 1027 1025 1025 1027 1030 1034 1035 1039 1042 1047 1049 1047 1046 1042 1039 1035 1032 1025 1017 1012 1007 1004 1003 1003 1001 1003 1004 1007 1009 1009 1009 1009 1004 1003 0 0 992 990 990 992 993 998 1001 1004 1009 1012 1017 1020 1022 1025 1029 1030 1032 1032 1032 1034 1034 1034 1035 1034 1034 1032 1030 1027 1025 1024 1022 1020 1022 1022 1024 1027 1030 1034 1037 1040 1039 1039 1039 1037 1037 1034 1032 1032 1032 1034 1037 1040 1040 1042 1046 1046 1044 1040 1039 1037 1035 1037 1039 1039 1040 1040 1042 1042 1042 1042 1040 1039 1039 1039 1039 1039 1039 1040 1042 1042 1044 1046 1046 1047 1047 1047 1047 1047 1049 1051 1052 1054 1056 1058 1060 1060 1060 1060 1060 1060 1058 1058 1058 1058 1056 1054 1056 1054 1054 1056 1056 1054 1054 1054 1056 1056 1058 1058 1058 1054 1056 1054 1054 0
1019 1019 1020 1020 1020 1020 1022 1022 1022 1022 1020 1017 1014 1011 1007 1003 999 996 993 990 988 985 982 981 978 976 975 973 970 970 970 969 969 970 970 970 970 972 972 972 973 973 973 973 972 972 972 972 970 970 970 970 970 970 970 970 969 969 969 969 967 967 966 964 964 963 961 960 960 959 957 957 956 956 956 956 956 957 957 957 959 960 961 963 964 964 966 967 970 973 976 982 987 992 998 1003 1007 1012 1015 1017 1017 1019 1019 1019 1019 1019 1017 1015 1012 1007 1003 999 995 990 985 982 979 978 978 978 976 976 976 976 976 976 976 976 976 975 975 975 975 975 975 976 978 979 981 982 982 984 984 984 984 984 982 982 982 981 981 979 979 979 979 978 978 979 981 982 982 982 984 982 984 985 985 987 990 990 992 995 995 996 996 998 999 1001 1004 1006 1007 1009 1011 1014 1017 1019 1022 1027 1034 1039 1046 1052 1056 1058 1060 1060 1058 1054 1051 1047 1040 1037 1034 1029 1029 1027 1027 1029 1032 1035 1040 1046 1052 0 1060 1061 1061 1061 1060 1058 1056 1052 1049 1047 1046 1044 1042 1042 1042 1044 1046 1047 1049 1052 1052 1056 1056 1054 1054 1054 1049 1046 1042 1039 1035 1032 1029 1027 1025 1025 1024 1024 1022 1022 1022 1022 1022 1022 1022 1022 1022 1022 1022 1022 1022 1022 1022 1022 1022 1022 1022 1022 1022 1022 1022 1022 1022 1022 1022 1022 1024 1024 1024 1024 1022 1022 1022 1024 1024 1024 1024 1024 1024 1024 1024 1024 1024 1025 1025 1025 1025 1027 1027 1029 1030 1030 1034 1034 1035 1039 1042 1044 1044 1044 1040 1035 1032 1029 1025 1022 1020 1019 1019 1020 1024 1027 1030 1034 1037 1042 1042 1042 1039 1037 1034 1030 1027 1019 1012 1006 1001 999 999 998 999 999 1001 1004 1006 1006 1004 1004 998 0 995 990 987 985 987 987 988 995 996 999 1004 1007 1011 1014 1017 1020 1022 1025 1027 1027 1027 1029 1029 1030 1030 1030 1029 1025 1024 1020 1019 1017 1017 1014 1014 1014 1015 1019 1022 1024 1027 1030 1030 1030 1030 1029 1029 1027 1027 1027 1029 1030 1032 1035 1035 1037 1039 1039 1037 1034 1032 1030 1030 1032 1034 1035 1035 1035 1039 1039 1039 1039 1037 1035 1035 1035 1035 1035 1035 1037 1039 1040 1040 1042 1042 1042 1042 1042 1042 1042 1044 1046 1047 1049 1051 1054 1056 1058 1060 1060 1060 1060 1056 1056 1054 1052 1052 1051 1049 1049 1047 1049 1049 1047 1047 1049 1049 1049 1051 1052 1051 1049 1049 1047 1047 0
1017 1017 1017 1017 1019 1019 1020 1020 1020 1019 1017 1014 1011 1007 1003 999 995 992 988 985 984 981 978 976 975 972 970 969 967 967 967 967 967 967 967 967 969 969 969 969 970 970 970 970 969 970 969 969 969 969 969 969 967 967 967 967 967 967 966 966 966 964 964 963 961 961 959 959 956 954 954 953 953 953 951 951 951 953 954 956 956 957 959 960 960 961 963 964 967 970 975 979 985 990 996 1001 1007 1011 1014 1015 1017 1017 1017 1019 1017 1017 1015 1014 1009 1004 1001 996 990 987 982 979 976 976 975 975 975 975 975 975 975 975 975 975 975 973 973 973 973 973 973 973 975 976 978 978 979 979 981 981 981 981 979 979 979 978 978 976 976 975 975 975 976 976 978 978 979 981 981 981 981 982 982 984 985 987 988 990 990 992 993 995 996 999 1001 1004 1004 1007 1009 1012 1015 1015 1019 1024 1029 1035 1042 1051 1052 1054 1054 1052 1052 1049 1046 1042 1037 1034 1030 1029 1027 1027 1027 1029 1030 1034 1037 1042 1046 0 0 1056 1054 1054 1052 1052 1049 1047 1046 1044 1042 1040 1040 1039 1040 1040 1042 1044 1044 1046 1046 1046 1046 1046 1044 1042 1037 1034 1030 1029 1025 1024 1020 1019 1017 1017 1017 1015 1015 1015 1015 1015 1015 1015 1015 1015 1015 1015 1015 1015 1015 1015 1015 1015 1015 1015 1015 1015 1015 1015 1015 1015 1015 1017 1017 1017 1017 1017 1017 1017 1017 1017 1017 1019 1019 1019 1019 1019 1019 1019 1019 1019 1019 1020 1020 1020 1022 1022 1022 1024 1025 1025 1029 1030 1030 1034 1037 1039 1039 1039 1035 1030 1027 1024 1020 1017 1015 1014 1014 1015 1020 1022 1025 1027 1032 1035 1037 1037 1034 1030 1029 1024 1020 1012 1006 1001 996 995 995 995 996 998 998 1003 1003 1003 1001 1001 995 992 988 987 984 982 984 985 985 990 993 995 999 1001 1004 1007 1011 1014 1015 1019 1020 1022 1022 1024 1025 1025 1025 1025 1024 1022 1019 1017 1014 1012 1011 1009 1009 1009 1009 1011 1014 1015 1019 1020 1022 1022 1022 1022 1022 1024 1024 1025 1025 1027 1029 1030 1032 1032 1034 1034 1030 1029 1025 1027 1027 1029 1030 1030 1032 1032 1034 1035 1035 1035 1035 1034 1032 1032 1034 1034 1034 1035 1035 1037 1037 1037 1039 1039 1039 1039 1039 1039 1039 1040 1042 1044 1044 1047 1051 1052 1054 1056 1056 1056 1054 1052 1049 1047 1046 1044 1042 1040 1039 1040 1040 1040 1040 1042 1042 1042 1044 1046 1044 1042 1042 1042 1042 0
1014 1014 1015 1015 1015 1017 1017 1017 1017 1015 1014 1011 1007 1003 998 995 990 987 984 982 979 976 975 972 969 969 967 966 964 964 964 964 964 964 966 966 966 966 967 967 967 967 967 967 966 967 967 967 966 966 966 966 966 966 964 964 964 964 964 963 963 961 961 960 960 959 957 956 953 951 950 948 948 948 947 947 948 948 950 951 953 954 956 957 957 959 960 961 964 969 973 978 982 988 993 999 1006 1009 1012 1014 1015 1015 1015 1017 1015 1015 1014 1011 1006 1001 998 992 987 984 979 976 973 973 973 973 973 973 973 973 973 973 973 973 973 972 972 972 970 970 972 972 972 973 975 975 976 976 976 978 978 978 976 976 976 976 975 975 973 973 973 973 973 975 976 976 976 978 978 978 978 979 981 981 982 984 985 987 987 988 990 992 993 996 998 1001 1003 1004 1006 1011 1012 1014 1015 1020 1024 1030 1037 1044 1046 1047 1047 1047 1047 1044 1042 1039 1034 1032 1029 1027 1025 1027 1025 1025 1030 1032 1034 1037 1039 0 0 1046 1047 1047 1046 1046 1044 1042 1042 1039 1039 1037 1037 1037 1037 1037 1039 1039 1039 1039 1039 1037 1035 1035 1032 1030 1027 1024 1022 1020 1017 1017 1015 1015 1014 1014 1012 1012 1012 1012 1012 1012 1012 1012 1012 1012 1012 1012 1012 1012 1012 1012 1012 1012 1012 1012 1012 1012 1012 1012 1012 1012 1012 1012 1012 1012 1012 1014 1014 1014 1014 1015 1015 1015 1015 1015 1015 1015 1017 1017 1017 1017 1017 1017 1017 1017 1019 1019 1019 1020 1022 1022 1027 1029 1029 1030 1032 1034 1034 1032 1029 1025 1020 1019 1015 1014 1014 1012 1011 1014 1017 1019 1022 1024 1029 1032 1032 1032 1029 1025 1022 1019 1014 1007 999 995 990 990 990 992 993 995 996 999 999 999 996 995 990 987 984 982 981 981 982 981 984 987 988 992 993 996 998 1001 1004 1006 1009 1012 1015 1015 1017 1020 1020 1022 1022 1022 1020 1019 1015 1014 1011 1009 1009 1006 1006 1004 1006 1006 1007 1009 1009 1011 1012 1014 1015 1017 1019 1019 1020 1022 1024 1025 1025 1027 1029 1027 1029 1027 1024 1022 1020 1019 1020 1020 1024 1025 1027 1027 1029 1030 1032 1032 1032 1032 1030 1030 1030 1030 1032 1032 1034 1034 1034 1035 1035 1035 1035 1035 1034 1034 1034 1035 1035 1037 1039 1040 1042 1046 1047 1049 1049 1049 1047 1047 1046 1044 1040 1039 1037 1035 1034 1035 1034 1034 1034 1034 1035 1035 1037 1039 1037 1037 1037 1037 1037 1039
1012 1012 1012 1014 1014 1015 1015 1015 1015 1014 1011 1007 1003 999 995 990 985 982 979 976 973 972 970 967 966 964 963 961 961 961 961 961 961 963 963 963 963 963 964 964 964 964 964 964 964 964 964 964 964 964 964 964 963 963 963 963 963 961 961 961 960 960 959 959 957 956 954 953 950 948 947 946 944 944 944 944 944 944 946 948 950 951 953 954 954 956 957 960 961 966 969 975 979 985 992 998 1003 1007 1009 1011 1012 1014 1014 1014 1014 1012 1011 1007 1003 999 995 988 984 981 976 973 972 970 970 970 970 970 972 972 972 972 972 972 972 970 970 970 970 970 970 970 970 972 972 973 973 973 973 975 975 975 975 973 973 973 973 973 972 972 972 972 972 973 973 975 975 975 976 976 976 978 978 979 981 981 982 984 984 985 987 988 990 993 995 998 999 1003 1004 1007 1009 1011 1012 1015 1019 1025 1030 1037 1039 1040 1040 1040 1040 1039 1035 1034 1030 1029 1027 1025 1025 1025 1024 1025 1027 1029 1030 1032 1032 1032 0 1039 1040 1039 1039 1037 1037 1037 1037 1035 1035 1034 1034 1034 1034 1034 1034 1034 1032 1030 1029 1027 1024 1024 1022 1020 1015 1014 1014 1014 1014 1014 1012 1012 1011 1011 1009 1009 1009 1009 1009 1009 1009 1009 1009 1009 1009 1009 1009 1009 1009 1009 1009 1009 1009 1009 1011 1009 1011 1009 1009 1009 1009 1009 1009 1009 1011 1011 1011 1011 1012 1012 1012 1014 1014 1014 1014 1014 1014 1015 1015 1015 1014 1014 1014 1014 1014 1015 1017 1017 1019 1022 1024 1025 1025 1027 1029 1029 1029 1027 1024 1020 1015 1014 1012 1011 1011 1009 1011 1014 1017 1019 1022 1025 1027 1029 1030 1029 1024 1020 1017 1012 1009 1003 996 992 988 987 988 990 992 993 993 996 996 996 993 992 985 984 981 979 979 979 979 981 982 985 987 988 990 992 993 995 998 1001 1003 1006 1011 1012 1014 1015 1019 1019 1019 1019 1017 1015 1014 1011 1009 1006 1006 1003 1003 1001 1001 1001 1001 1003 1003 1004 1004 1007 1009 1011 1012 1015 1017 1019 1020 1022 1024 1024 1024 1024 1022 1020 1019 1017 1015 1015 1015 1017 1019 1020 1022 1024 1025 1027 1029 1029 1029 1029 1029 1029 1029 1029 1030 1030 1030 1030 1030 1030 1030 1030 1030 1030 1029 1029 1029 1029 1030 1032 1032 1034 1037 1040 1040 1042 1046 1046 1044 1042 1040 1039 1037 1035 1032 1032 1030 1030 1030 1029 1029 1029 1029 1030 1032 1034 1032 1032 1032 1034 1034 1034
1011 1011 1011 1011 1012 1014 1012 1014 1012 1011 1007 1004 999 995 990 985 982 978 975 972 970 967 964 963 961 960 959 957 957 957 959 959 959 960 960 960 960 960 960 960 960 960 961 961 961 963 963 963 963 963 963 961 961 961 961 960 960 960 959 959 959 959 957 957 956 954 951 950 948 946 943 943 941 940 940 940 941 941 943 946 947 948 950 951 951 953 954 957 959 963 967 973 978 984 990 996 999 1004 1007 1009 1011 1011 1011 1012 1011 1011 1007 1004 1001 996 992 985 982 978 973 970 969 969 969 969 969 969 969 970 970 970 970 970 970 970 969 969 969 969 969 969 969 969 970 970 970 972 972 972 972 972 972 972 972 972 972 970 970 970 970 970 972 972 972 973 973 973 975 975 976 976 978 978 978 979 981 982 982 982 984 985 987 990 992 995 996 999 1003 1004 1006 1007 1009 1012 1015 1017 1022 1027 1030 1034 1034 1035 1034 1034 1030 1029 1027 1025 1024 1022 1022 1020 1020 1022 1024 1025 1025 1025 1024 0 1029 1032 1030 1032 1030 1032 1030 1032 1034 1032 1030 1030 1030 1030 1030 1030 1030 1029 1027 1025 1022 1020 1017 1017 1015 1012 1011 1011 1011 1011 1011 1011 1009 1009 1007 1007 1007 1007 1007 1007 1007 1007 1007 1007 1007 1007 1007 1007 1007 1007 1007 1007 1007 1007 1007 1007 1007 1007 1007 1007 1006 1006 1006 1006 1006 1006 1007 1007 1007 1009 1009 1011 1011 1011 1011 1012 1012 1012 1014 1014 1014 1012 1012 1012 1012 1012 1012 1012 1014 1014 1017 1017 1020 1022 1024 1024 1025 1025 1024 1022 1020 1015 1012 1011 1009 1007 1007 1009 1009 1012 1017 1019 1020 1024 1025 1027 1027 1025 1020 1015 1011 1007 1003 998 992 988 984 987 987 987 988 990 992 993 993 992 988 985 982 979 978 976 978 978 979 979 979 982 984 984 985 987 988 990 993 995 996 1001 1004 1006 1009 1011 1014 1014 1015 1015 1014 1012 1011 1009 1006 1004 1004 1001 1001 999 999 999 999 998 999 999 1001 1003 1004 1007 1009 1012 1015 1017 1019 1020 1022 1020 1020 1020 1017 1017 1014 1012 1012 1012 1012 1014 1015 1017 1020 1020 1022 1024 1025 1025 1027 1025 1025 1025 1025 1027 1027 1027 1027 1027 1027 1027 1027 1027 1027 1025 1024 1024 1024 1024 1025 1025 1027 1030 1032 1034 1035 1039 1039 1042 1040 1039 1037 1035 1034 1030 1029 1027 1025 1024 1024 1024 1024 1024 1024 1027 1029 1030 1030 1032 1032 1032 1034 1034
1007 1007 1009 1009 1009 1011 1011 1011 1009 1007 1004 999 995 990 985 981 978 973 969 967 964 963 960 957 956 954 954 953 953 953 954 956 956 956 957 957 957 957 957 957 957 957 957 957 957 959 959 960 960 960 960 960 960 960 960 959 959 959 959 957 957 957 956 954 953 951 950 947 944 943 940 939 937 937 936 937 937 939 940 943 944 946 947 948 950 950 951 954 959 963 966 972 976 982 988 993 998 1001 1004 1006 1007 1007 1007 1009 1009 1007 1004 1001 998 993 988 984 981 976 973 970 969 969 967 967 967 967 969 969 969 969 969 969 969 969 969 969 969 969 967 967 967 967 969 969 969 969 970 970 970 970 970 970 970 970 970 970 970 969 969 969 970 970 972 972 973 973 973 973 975 975 976 976 978 978 979 979 981 981 981 982 985 987 990 992 995 998 1001 1001 1004 1006 1007 1009 1012 1015 1017 1020 1024 1027 1029 1029 1029 1027 1025 1025 1024 1022 1020 1020 1019 1019 1017 1017 1019 1019 1019 1019 1017 0 1020 1022 1022 1024 1024 1025 1025 1027 1029 1029 1027 1027 1027 1027 1027 1025 1025 1024 1022 1019 1015 1014 1011 1009 1009 1006 1004 1003 1004 1006 1006 1006 1006 1004 1004 1003 1003 1003 1003 1003 1003 1003 1003 1003 1003 1003 1003 1003 1003 1003 1003 1003 1003 1003 1003 1003 1003 1003 1003 1003 1003 1003 1003 1003 1003 1003 1003 1003 1004 1004 1006 1006 1007 1007 1009 1009 1009 1011 1011 1011 1009 1009 1007 1007 1007 1007 1009 1009 1011 1012 1015 1017 1019 1019 1020 1020 1020 1020 1019 1017 1014 1011 1009 1007 1007 1006 1006 1007 1009 1011 1015 1017 1020 1024 0 0 1025 1022 1017 1012 1007 1003 999 995 990 987 984 984 985 987 988 988 990 990 992 988 987 984 981 979 976 976 976 978 978 979 979 979 981 981 981 982 982 984 985 988 990 993 998 1001 1004 1006 1009 1011 1011 1011 1009 1009 1007 1006 1004 1003 1003 999 999 998 998 998 996 998 996 998 999 999 1003 1006 1007 1011 1014 1015 1017 1019 1019 1019 1017 1015 1014 1012 1011 1011 1009 1009 1011 1011 1012 1015 1017 1019 1019 1022 1022 1024 1024 1024 1024 1024 1024 1024 1024 1024 1024 1024 1024 1024 1024 1024 1022 1020 1020 1019 1019 1020 1020 1020 1022 1024 1027 1030 1032 1034 1037 1039 1039 1039 1035 1032 1030 1029 1027 1025 1022 1020 1020 1019 1019 1020 1020 1022 1024 1025 1027 1029 1029 1030 1030 1032
1006 1006 1006 1007 1007 1007 1007 1007 1006 1004 1001 996 992 987 981 976 972 967 964 961 959 956 954 953 951 950 948 948 948 950 950 951 951 953 953 953 953 953 953 953 953 953 954 954 954 956 956 957 957 959 959 959 959 959 957 957 957 957 956 956 956 954 953 951 950 948 947 944 941 940 937 936 934 934 933 934 934 937 939 940 941 943 944 946 947 948 948 951 956 960 964 969 975 981 987 992 995 998 1001 1003 1003 1004 1004 1004 1004 1004 1001 998 995 990 987 982 979 976 973 970 969 967 967 966 966 966 966 967 967 967 967 969 969 969 969 969 967 967 967 967 967 967 967 967 967 969 969 969 969 969 969 969 969 969 969 969 969 969 969 969 970 970 970 972 972 972 973 973 975 975 976 976 976 976 978 978 978 979 979 981 982 985 987 988 992 995 998 999 1003 1003 1004 1006 1007 1009 1011 1014 1015 1019 1019 1020 1020 1020 1020 1020 1020 1019 1019 1017 1017 1015 1015 1015 1015 1014 1014 1014 1012 1012 1015 1015 1017 1017 1017 1020 1020 1024 1025 1024 1024 1024 1024 1024 1022 1020 1020 1019 1015 1012 1011 1007 1006 1004 1003 1001 999 999 999 1001 1001 1001 999 999 999 999 999 999 999 999 999 999 999 999 999 999 999 999 999 999 999 999 999 999 999 999 999 999 999 999 998 998 998 998 998 998 999 999 1001 1001 1003 1003 1004 1004 1006 1006 1007 1007 1007 1009 1007 1006 1004 1004 1004 1004 1004 1004 1007 1009 1012 1012 1014 1015 1015 1015 1015 1015 1014 1012 1011 1007 1006 1006 1004 1004 1006 1007 1009 1012 1015 1019 1020 1025 0 0 0 1022 1015 1011 1006 1001 996 993 988 985 982 982 984 985 987 987 987 988 988 987 985 982 981 978 976 976 976 978 978 978 976 978 978 978 979 979 978 981 981 982 985 987 990 993 998 1001 1003 1006 1006 1007 1006 1006 1004 1004 1003 1001 1001 999 999 998 998 996 996 995 996 996 998 999 1001 1004 1006 1009 1012 1014 1015 1015 1015 1015 1015 1012 1012 1009 1007 1007 1007 1007 1009 1009 1011 1012 1014 1015 1017 1019 1019 1020 1020 1020 1020 1020 1020 1020 1022 1020 1020 1022 1020 1020 1020 1019 1019 1017 1015 1015 1015 1015 1015 1017 1017 1019 1020 1024 1027 1030 1034 1037 1037 1037 1034 1032 1030 1029 1025 1022 1020 1019 1017 1017 1017 1017 1017 1019 1022 1024 1024 1025 1025 1027 1027 1029
1004 1003 1004 1004 1006 1006 1006 1004 1003 1001 996 992 987 982 978 972 967 963 960 956 954 951 948 947 946 944 944 944 944 946 946 947 947 948 948 948 950 950 950 950 950 950 950 951 951 953 953 954 954 954 956 956 956 956 954 954 954 954 953 953 951 951 950 950 948 946 944 941 940 937 934 933 932 930 932 930 932 933 936 937 939 940 943 944 944 946 947 950 954 957 961 967 972 978 984 988 992 995 996 998 999 999 1001 1001 1001 999 998 995 992 988 985 982 979 976 973 972 969 969 967 967 966 966 966 966 966 967 967 967 967 967 967 969 969 969 969 969 969 969 969 969 969 969 969 967 967 967 967 967 967 967 967 967 967 967 967 967 969 970 970 970 972 973 973 975 975 975 976 976 976 976 978 978 978 978 978 978 981 982 984 985 990 993 995 998 998 999 1001 1003 1004 1004 1004 1006 1007 1011 1012 1014 1014 1014 1015 1017 1017 1015 1015 1014 1012 1012 1011 1011 1011 1011 1009 1009 1009 0 0 1009 1009 1011 1012 1014 1015 1017 1019 1020 1020 1020 1020 1020 1019 1017 1015 1012 1011 1007 1006 1003 1001 998 996 996 995 995 996 996 996 996 996 995 995 995 995 995 995 995 996 996 996 996 996 996 996 996 996 996 996 996 996 996 996 996 996 996 996 996 995 995 995 995 995 996 996 996 998 998 999 999 1001 1001 1003 1003 1004 1004 1006 1004 1004 1003 1003 1001 1001 1001 1001 1003 1004 1006 1009 1009 1011 1012 1012 1011 1011 1011 1009 1007 1006 1004 1003 1001 1001 1003 1004 1006 1009 1012 1015 1017 1022 1025 0 0 0 0 1014 1007 1003 998 995 992 987 984 981 981 982 984 985 985 985 985 987 985 0 0 0 976 976 976 976 978 978 978 976 978 978 978 978 978 976 976 978 979 981 984 985 990 0 996 998 999 1003 1003 1003 1003 1001 1001 1001 1001 1001 999 999 998 998 996 996 995 995 996 996 999 1001 1004 1006 1009 1012 1014 1014 1014 1014 1012 1011 1009 1007 1006 1004 1004 1004 1004 1006 1007 1009 1009 1012 1012 1014 1015 1017 1017 1017 1017 1019 1017 1017 1017 1019 1019 1019 1019 1017 1017 1017 1017 1014 1014 1014 1012 1012 1011 1011 1012 1014 1015 1019 1020 1024 1027 1030 1034 1034 1035 1034 1032 1027 1027 1024 1022 1019 1017 1015 1015 1015 1015 1015 1017 1020 1020 1022 1024 1024 1025 1025 1027
1001 1001 1001 1003 1003 1003 1003 1001 999 996 993 988 984 979 973 967 963 959 954 951 948 946 944 941 940 940 940 940 940 941 943 943 944 944 946 946 946 946 946 946 946 946 947 947 948 948 950 950 951 951 951 951 951 951 951 951 950 950 950 950 948 948 947 947 946 944 941 939 937 934 932 930 929 928 928 928 929 930 933 934 936 939 940 941 943 944 946 948 951 956 960 964 970 976 981 985 988 990 993 995 996 996 996 998 998 996 995 993 990 988 985 982 979 976 975 972 970 970 969 967 966 966 964 964 966 966 966 967 967 967 967 969 969 969 970 970 970 970 970 970 969 969 969 967 967 967 967 966 966 966 966 967 967 967 967 967 969 970 970 972 973 973 973 975 975 975 976 976 976 976 976 976 976 976 976 976 978 979 981 984 987 990 993 995 996 998 998 999 1001 1001 999 1001 1003 1006 1007 1009 1011 1011 1012 1012 1014 1012 1011 1011 1009 1006 1007 1007 1006 1004 1004 1003 0 0 1003 1004 1004 1006 1009 1009 1011 1014 1015 1017 1017 1017 1017 1017 1014 1012 1011 1007 1006 1004 1001 998 996 995 995 993 993 992 992 992 993 992 992 992 992 992 992 992 992 992 992 992 992 993 993 993 993 993 993 993 995 995 995 995 995 995 993 993 993 993 993 992 992 992 993 993 993 993 995 995 996 996 998 998 999 1001 1001 1003 1003 1003 1001 999 999 999 998 999 1001 1001 1001 1003 1006 1007 1009 1009 1009 1009 1007 1006 1006 1004 1003 1001 1001 999 999 1003 1004 1006 1007 1011 1014 1017 1022 0 0 0 0 0 0 0 1001 996 995 990 987 982 981 981 981 982 982 984 984 984 985 982 0 0 0 976 976 976 976 978 978 978 976 976 976 976 976 976 976 975 975 978 978 978 979 984 0 0 993 996 998 998 998 998 998 999 998 999 999 999 999 998 998 996 996 995 995 995 996 998 1001 1003 1006 1007 1011 1012 1012 1014 1012 1011 1009 1006 1004 1003 1003 1003 1003 1003 1004 1006 1006 1007 1009 1009 1011 1012 1012 1014 1014 1014 1014 1014 1014 1014 1014 1014 1014 1014 1014 1014 1014 1012 1012 1011 1011 1009 1007 1007 1007 1007 1007 1011 1012 1015 1017 1020 1025 1029 1032 1032 1032 1030 1027 1024 1022 1019 1017 1015 1014 1014 1014 1014 1014 1015 1017 1019 1020 1022 1024 1024 1024 1025
999 999 999 999 999 999 999 998 995 993 988 984 979 975 969 963 960 956 951 947 944 941 939 937 936 936 936 936 936 937 939 939 940 940 941 941 941 941 941 943 943 943 943 944 944 946 946 947 947 948 948 948 948 948 948 948 947 947 947 947 946 946 946 944 943 941 939 937 934 932 929 928 926 925 925 925 926 928 929 930 933 936 937 939 940 941 943 947 950 954 959 963 969 975 979 982 985 987 988 990 992 993 993 993 993 993 992 990 988 987 985 982 981 978 975 973 972 970 969 967 966 966 964 964 964 966 966 966 967 967 969 969 970 972 972 973 973 973 973 973 972 970 969 969 967 966 966 966 964 964 966 966 966 966 967 967 969 970 970 972 973 975 975 975 976 976 976 976 976 976 976 976 976 975 975 976 976 978 979 981 984 988 992 993 995 995 996 998 998 996 996 998 999 1001 1003 1004 1004 1006 1007 1009 1007 1007 1007 1006 1004 1003 1001 1001 999 1001 999 999 0 999 999 1003 1003 1003 1004 1006 1007 1011 1012 1012 1014 1014 1014 1012 1011 1009 1006 1004 1001 998 995 993 993 992 990 990 988 988 988 988 988 988 988 988 988 988 987 988 988 988 988 988 988 990 990 990 990 990 990 992 992 992 992 992 992 992 992 992 990 990 990 990 990 990 990 990 992 992 992 993 993 995 995 995 996 998 998 999 998 998 998 998 996 996 996 996 998 999 999 1001 1004 1004 1007 1007 1009 1007 1006 1004 1004 1003 1001 999 999 998 999 1001 1003 1004 1007 0 0 0 0 0 0 0 0 0 0 0 998 996 992 988 987 982 979 979 981 981 981 982 982 982 982 981 0 0 976 976 976 976 976 976 976 976 976 975 976 975 975 975 973 973 975 975 973 975 975 978 0 0 987 990 992 993 993 995 996 996 996 996 996 998 998 998 998 996 995 993 993 993 995 996 999 1001 1004 1007 1009 1012 1012 1012 1011 1009 1006 1006 1003 1001 999 999 999 999 1001 1003 1003 1003 1004 1006 1007 1009 1009 1009 1009 1011 1011 1011 1011 1011 1009 1011 1011 0 0 0 1011 1009 1009 1007 1006 1006 1006 1004 1004 1004 1004 1007 1009 1011 1014 1019 1020 1025 1030 1032 1030 1029 1027 1024 1022 1017 1015 1014 1012 1011 1011 1011 1011 1012 1014 1017 1017 1020 1020 1022 1022 1025
996 996 998 998 996 996 996 993 992 988 985 981 976 970 966 960 956 951 947 943 940 937 934 933 932 932 932 932 933 934 934 936 936 937 937 939 939 939 939 939 939 940 940 940 941 941 943 944 944 944 946 946 946 946 946 944 944 944 944 943 943 943 941 941 940 939 936 934 932 929 926 925 924 922 922 922 924 924 925 929 930 933 934 937 937 940 941 944 948 953 957 961 967 972 978 981 982 984 985 987 988 988 990 990 990 990 990 988 987 985 985 982 981 979 978 975 973 972 969 967 966 964 964 963 963 964 964 966 966 967 969 970 972 973 975 975 976 976 975 975 973 972 970 969 967 966 966 964 964 964 964 964 964 966 966 967 969 970 972 973 975 975 976 978 978 978 978 978 978 978 976 976 976 975 975 975 975 976 978 979 982 985 988 992 993 993 993 995 995 995 995 995 995 998 1001 1001 1001 1003 1004 1004 1004 1004 1003 1001 999 998 996 998 996 995 995 995 995 996 998 999 999 999 1001 1003 1004 1006 1007 1009 1009 1011 1009 1009 1007 1004 1003 999 996 995 992 990 988 988 987 987 985 987 985 985 985 985 984 984 984 984 984 984 984 985 985 985 985 985 985 987 987 987 987 988 988 988 988 988 988 988 988 988 987 987 987 987 987 987 987 987 988 988 988 990 990 990 992 992 993 993 995 995 995 996 995 995 995 995 995 995 995 996 998 999 1001 1003 1004 1006 1006 1004 1003 1001 1001 999 999 998 998 998 999 1001 1003 1006 1007 1012 0 0 0 1027 0 0 0 0 0 0 996 993 990 987 985 981 978 978 979 979 979 979 979 979 979 979 0 0 975 975 975 975 975 975 975 975 975 975 975 973 973 973 973 973 973 973 972 973 972 975 0 0 981 984 987 987 987 988 990 992 992 992 993 995 995 996 995 995 993 992 993 993 995 996 998 1001 1004 1006 1009 1009 1011 1011 1009 1007 1006 1003 1001 999 998 996 998 998 998 998 999 999 1001 1003 1004 1006 1006 1006 1006 1006 1006 1006 1006 1006 1006 1006 1006 0 0 0 0 1007 1006 1004 1004 1003 1003 1003 1003 1001 1003 1004 1007 1009 1012 1015 1020 1024 1029 1030 1029 1029 1025 1024 1020 1017 1014 1012 1011 1009 1007 1007 1007 1009 1011 1012 1014 1015 1017 1019 1020 1022
995 995 995 995 995 993 993 990 987 985 981 976 972 966 961 956 951 947 943 939 936 933 932 930 929 929 929 929 930 930 932 932 933 933 934 934 934 934 934 934 936 936 937 937 937 939 940 940 940 941 941 941 941 941 941 941 941 940 940 940 940 940 939 939 937 936 933 932 929 926 925 922 921 921 920 921 921 922 924 926 929 932 933 934 936 937 940 943 947 951 956 960 966 970 975 978 981 982 982 984 985 985 987 988 988 987 987 987 987 985 985 984 982 981 979 976 975 973 970 969 966 964 964 963 963 964 964 966 966 967 969 970 972 975 976 978 978 979 979 978 976 975 972 970 967 966 964 964 963 963 964 964 964 964 966 967 969 970 973 975 976 978 978 978 978 979 979 979 979 978 978 978 976 975 975 975 975 975 976 978 981 984 987 988 990 992 993 993 995 993 993 993 995 996 998 998 999 1001 1001 1003 1001 999 999 998 996 995 993 993 992 992 992 990 992 992 993 995 995 996 998 999 1001 1003 1004 1006 1006 1006 1006 1004 1003 1001 998 996 993 992 990 988 985 985 984 984 982 982 982 981 981 979 979 979 979 979 979 979 979 979 979 981 981 981 981 981 982 982 982 982 984 984 984 984 984 984 984 984 982 982 982 982 982 982 982 984 984 984 984 985 985 985 987 987 988 988 990 988 990 990 992 990 992 992 992 992 993 995 995 996 998 999 999 1001 1003 999 999 998 998 998 998 996 998 998 999 1001 1003 1004 1006 1011 1012 0 0 0 0 0 0 0 0 0 0 988 987 985 982 979 976 976 976 978 978 978 978 976 976 976 973 973 972 972 972 972 973 973 973 973 973 973 973 973 973 972 972 972 970 970 970 969 969 970 0 0 975 978 979 981 981 984 985 985 987 988 988 992 992 993 992 993 992 992 992 993 993 996 998 1001 1003 1004 1007 1009 1009 1009 1007 1006 1004 1001 999 998 996 996 996 996 996 996 996 996 998 998 999 1001 1001 1001 1003 1001 1001 1001 1001 1001 999 999 1001 0 0 0 1004 1003 1003 1001 1001 1001 999 999 999 999 1001 1003 1004 1007 1009 1014 1017 1022 1025 1029 1029 1027 1025 1024 1020 1017 1012 1009 1007 1006 1004 1004 1004 1004 1006 1007 1011 1012 1014 1015 1017 1020
993 992 992 992 992 990 988 985 984 981 976 972 967 961 957 951 946 943 939 934 932 930 928 926 926 925 925 926 926 928 928 929 929 930 930 930 930 932 932 932 932 933 933 934 934 936 936 937 937 939 939 939 939 939 939 937 937 937 937 937 937 937 937 936 934 933 932 929 928 924 922 921 920 920 918 918 920 921 922 925 928 930 932 933 934 936 939 941 947 950 954 960 964 969 973 976 978 979 981 981 982 984 984 985 985 985 985 985 985 985 985 984 984 982 979 978 976 973 972 969 967 966 964 963 963 963 964 964 966 967 969 970 973 976 978 979 981 981 981 979 978 976 973 972 969 967 964 964 963 963 963 963 964 964 966 967 970 972 973 975 976 978 979 979 979 981 981 981 979 979 979 978 978 976 975 975 973 975 975 976 979 982 985 988 988 988 990 992 993 992 992 992 992 995 996 996 998 998 999 1001 999 998 996 996 995 992 992 990 988 990 988 987 987 987 988 990 990 992 993 996 998 999 1001 1003 1003 1003 1004 1003 1001 999 996 995 992 990 988 987 984 984 982 981 981 979 979 978 976 976 975 975 975 975 975 975 975 975 975 976 976 976 976 978 978 978 978 979 979 979 979 979 979 979 979 979 979 979 979 979 979 979 979 979 979 981 981 981 981 982 982 981 982 982 984 985 985 987 988 988 990 988 990 990 992 992 992 995 995 996 996 996 999 996 996 996 996 995 996 996 996 998 999 1001 1003 1004 1006 1011 1014 1015 0 1029 0 0 0 0 0 0 987 984 982 982 981 976 975 975 975 975 975 975 975 975 973 972 969 969 967 967 967 969 970 970 972 972 972 972 972 972 972 970 970 969 969 970 969 967 967 969 0 0 972 973 975 976 975 978 978 979 981 982 984 987 988 990 992 992 992 990 992 992 992 995 996 999 1001 1003 1006 1007 1007 1007 1006 1003 1001 999 998 996 996 993 995 993 993 993 993 993 993 995 996 998 998 998 998 996 996 996 995 995 995 993 995 0 0 0 999 999 998 998 996 996 996 996 996 996 998 999 1001 1004 1007 1011 1014 1020 1022 1025 1025 1025 1024 1020 1019 1014 1011 1007 1006 1003 1001 1001 999 999 1001 1003 1006 1007 1009 1011 1014 1017
990 990 990 988 988 987 985 982 979 975 972 967 961 957 951 947 941 939 934 930 928 926 925 924 922 922 922 924 924 925 925 926 926 928 928 928 928 928 928 929 929 930 930 932 932 933 933 934 934 934 934 936 936 934 934 934 934 933 933 933 933 934 933 933 932 930 929 926 925 922 920 918 917 917 917 917 918 920 922 924 926 929 930 930 932 934 936 940 946 948 954 959 963 969 973 975 976 978 978 979 981 981 982 984 984 984 985 985 985 985 985 985 984 982 982 981 978 975 972 970 967 966 964 964 963 963 964 964 966 967 970 972 975 976 979 981 984 984 984 982 981 978 976 972 970 967 964 964 963 963 963 963 964 964 966 967 970 973 975 976 978 979 981 981 981 982 982 982 981 981 979 979 978 976 976 975 975 975 975 975 978 981 984 987 987 988 990 992 992 990 990 990 992 993 995 995 996 996 998 999 998 996 995 993 993 990 988 987 987 985 985 984 984 984 985 985 987 988 990 992 993 995 996 998 999 999 1001 999 998 996 995 992 990 988 987 985 982 982 981 979 978 978 976 973 973 973 972 972 972 972 972 972 972 972 972 972 972 973 973 973 973 975 975 975 976 976 976 976 976 976 976 976 976 976 976 976 976 976 976 976 976 978 978 978 978 978 978 978 976 978 979 979 981 981 982 984 987 987 988 987 988 988 992 992 992 992 992 995 995 995 993 993 995 993 995 995 996 996 999 1001 1003 1004 1006 1009 1011 1014 1019 0 0 0 0 0 0 0 981 979 978 979 978 975 972 972 972 973 973 973 972 970 970 966 966 964 964 964 964 964 969 970 970 970 970 970 970 970 970 969 969 967 966 966 964 964 964 966 0 967 969 970 969 970 970 970 972 973 975 976 979 982 985 987 988 990 990 988 990 990 990 992 995 996 998 1001 1003 1004 1004 1004 1003 999 998 996 995 995 993 992 992 990 990 990 990 990 990 990 992 993 993 993 993 993 993 992 992 990 990 988 0 0 0 0 0 995 995 993 992 993 992 992 992 993 995 996 998 1001 1004 1007 1012 1017 1019 1022 1022 1022 1020 1017 1014 1011 1007 1004 1003 999 996 996 995 995 995 996 999 1004 1006 1007 1009 1012
988 987 987 987 985 984 981 978 975 972 967 963 957 951 947 941 937 934 930 928 925 922 922 921 920 920 920 921 921 922 922 924 924 924 925 925 925 925 925 926 926 928 928 929 929 930 930 932 932 932 932 932 932 932 932 930 930 930 930 930 930 930 930 930 929 928 926 925 922 921 918 917 917 916 917 917 917 920 921 924 926 928 929 929 932 933 936 940 943 947 951 957 961 966 970 973 975 976 976 978 979 979 981 982 982 982 984 985 985 985 985 985 985 984 982 981 979 976 973 970 969 967 964 964 963 963 964 964 966 969 970 972 976 978 981 984 985 987 987 985 984 981 976 973 970 967 966 963 963 961 963 963 963 964 966 967 970 973 975 978 979 981 982 982 982 984 984 984 982 982 981 979 979 978 976 975 975 975 973 975 976 979 982 984 985 987 987 990 990 988 988 988 990 992 993 992 995 995 996 998 995 995 993 993 992 988 987 984 982 982 981 981 979 979 981 982 982 984 985 987 990 992 993 995 995 995 996 995 993 993 992 990 988 985 985 984 982 981 979 978 976 975 973 972 972 970 969 969 969 969 967 967 967 967 967 969 969 969 969 969 970 970 972 972 972 973 973 973 973 973 973 973 973 972 972 972 972 973 973 973 973 973 973 975 975 975 973 972 973 973 975 975 978 978 979 982 984 985 985 985 987 987 988 988 990 988 990 992 992 992 990 990 992 993 995 995 996 996 998 999 1001 1003 1004 1007 1011 1011 1015 0 0 0 0 0 0 0 979 975 975 975 975 972 970 970 970 970 970 970 970 966 966 961 961 960 960 960 960 963 964 967 969 969 970 970 970 970 970 969 969 966 964 964 963 961 961 963 0 964 966 966 964 966 966 964 964 966 967 970 973 976 981 984 985 987 987 987 987 987 988 990 992 993 995 996 999 1001 1001 1003 1001 998 995 995 993 992 990 988 988 987 987 985 985 985 985 985 987 988 988 988 988 988 988 987 985 985 985 984 0 0 0 0 990 990 990 990 990 988 990 990 990 990 992 993 996 999 1001 1004 1009 1012 1017 1019 1020 1020 1017 1014 1011 1006 1003 1001 998 995 993 990 990 990 990 990 995 998 999 1003 1004 1009
985 984 984 984 982 979 978 975 970 966 961 957 951 947 941 939 933 930 928 925 922 921 920 918 918 918 918 918 920 920 920 921 921 921 922 922 922 922 922 924 924 925 926 926 926 928 929 929 929 929 929 929 929 929 929 928 928 928 928 928 928 928 928 928 926 925 924 922 921 918 917 916 916 914 916 917 917 918 921 924 925 926 928 929 930 932 936 939 943 947 951 956 960 966 969 972 973 975 976 976 978 979 979 981 981 982 984 984 984 984 985 985 984 984 982 981 978 976 973 970 969 967 964 964 963 963 964 964 966 967 970 973 976 979 982 985 987 988 988 987 985 982 979 975 970 967 964 963 961 961 961 961 963 963 966 969 970 973 976 978 981 982 984 984 984 984 984 984 984 982 982 981 979 979 978 976 975 975 975 975 976 979 981 984 984 985 987 988 990 988 988 988 990 990 992 992 993 993 995 995 992 992 990 988 987 984 982 981 979 979 978 976 976 976 976 978 979 979 981 982 985 987 988 990 990 990 992 990 990 988 988 987 985 984 984 982 981 979 979 976 975 973 972 970 969 969 966 966 966 966 964 964 964 964 964 964 964 964 966 966 966 967 967 967 969 969 969 970 970 970 969 969 969 969 969 969 969 969 969 970 970 970 970 970 970 972 972 970 969 969 970 970 972 975 976 978 981 982 984 984 984 985 985 985 985 985 987 988 990 988 987 988 990 992 992 993 995 995 996 998 999 1001 1004 1006 0 0 0 0 0 0 0 0 0 0 975 973 973 972 972 970 969 969 969 969 969 969 967 966 964 960 959 959 959 959 959 959 961 964 967 967 967 969 969 967 967 966 966 964 963 960 960 959 959 960 960 961 964 964 963 961 960 960 959 960 961 963 967 972 976 979 982 984 985 985 985 985 985 987 988 990 992 995 996 998 998 999 998 995 993 992 990 988 987 987 985 984 982 982 981 981 981 981 982 984 984 984 984 984 984 982 982 982 981 981 981 0 0 0 985 985 985 985 987 987 985 987 987 988 988 992 993 996 999 1003 1006 1009 1012 1015 1017 1019 1015 1009 1007 1003 999 996 993 990 988 987 985 984 985 985 988 993 993 996 998 1003
984 982 982 981 979 976 973 970 966 961 957 951 947 943 937 934 930 928 925 922 920 918 918 917 917 916 916 916 917 917 918 918 918 920 920 920 920 920 921 921 922 922 924 924 925 925 926 926 928 928 928 926 926 926 926 925 925 925 925 925 925 925 925 924 924 922 921 920 918 917 916 916 914 916 916 917 918 920 921 922 925 926 928 929 930 932 934 939 941 946 950 956 960 964 969 970 972 973 975 976 976 978 978 979 981 981 982 982 982 984 984 982 982 982 981 979 978 975 973 970 967 966 964 964 963 963 963 964 966 967 970 973 975 979 982 985 987 988 988 988 985 982 979 975 972 969 966 963 961 961 961 961 963 963 966 969 970 975 976 979 981 984 985 985 985 985 985 985 985 984 982 982 981 979 978 976 975 975 973 975 975 978 981 982 982 984 985 988 988 988 987 987 988 990 990 990 990 990 992 992 988 987 985 985 984 982 979 978 976 976 975 973 972 973 973 975 975 976 978 979 981 982 984 985 985 985 987 985 985 984 984 984 982 982 981 979 979 978 976 975 973 972 970 969 967 967 964 964 963 963 963 963 961 961 961 961 961 961 961 961 963 963 963 964 964 966 966 966 966 966 966 966 966 966 966 966 966 966 966 966 966 966 966 967 967 967 967 966 964 964 964 967 969 970 972 975 978 981 981 981 981 982 982 982 982 982 982 985 988 985 985 987 988 990 990 990 993 995 996 998 998 999 1001 1004 0 0 0 0 0 0 0 0 0 0 972 970 970 970 969 967 967 967 967 967 969 967 966 963 960 957 957 954 954 954 954 956 959 960 964 964 967 967 967 967 966 964 964 963 961 959 957 957 957 959 959 960 963 961 960 957 956 954 954 953 956 959 961 966 972 975 979 981 984 984 984 984 984 985 985 987 988 992 992 993 995 996 995 993 990 990 988 987 987 984 982 981 979 978 978 978 978 978 978 979 979 979 979 979 979 979 978 978 978 976 978 0 978 979 981 982 982 982 984 984 984 984 984 985 987 988 990 993 996 999 1003 1004 1007 1012 1014 0 0 0 0 0 995 992 988 985 982 981 979 979 979 979 982 985 987 990 992 996
982 981 979 978 975 972 969 964 960 956 951 946 941 937 933 930 928 925 922 920 918 917 916 916 914 914 914 914 914 914 916 916 917 917 917 917 917 918 918 918 920 921 921 922 922 924 924 925 925 925 925 925 925 924 924 924 922 922 922 922 924 922 922 921 921 921 920 918 917 916 916 916 914 916 916 916 918 920 921 924 925 926 928 929 929 932 934 937 941 946 950 956 960 964 967 970 970 972 973 975 975 976 978 978 979 979 981 981 981 981 981 981 981 979 979 978 976 975 972 970 967 966 964 964 963 963 963 966 966 967 970 972 975 978 981 985 987 988 988 987 985 984 979 975 972 969 966 963 963 961 961 961 963 964 966 967 972 973 976 979 981 984 984 985 985 985 985 985 985 984 984 982 982 979 978 976 975 975 973 973 975 976 979 979 981 982 984 985 987 987 985 985 987 988 990 988 987 987 987 987 984 982 982 981 981 979 978 976 975 973 972 970 969 970 970 970 972 972 973 975 976 978 979 979 981 981 981 981 981 981 979 979 979 979 979 978 978 976 975 973 972 972 969 967 966 966 964 964 961 961 961 960 960 960 959 959 959 959 959 959 959 960 960 961 961 963 963 963 963 963 963 963 963 963 963 961 961 961 963 963 963 963 963 963 964 964 963 961 961 961 961 963 964 967 970 973 976 978 978 978 978 978 979 979 979 979 981 982 985 985 985 987 988 990 990 990 993 993 996 998 996 998 999 999 0 0 0 0 0 0 0 0 0 0 970 969 969 969 969 967 967 967 967 967 967 966 964 961 959 957 954 954 951 951 953 953 956 957 961 963 966 966 966 966 964 964 963 961 959 957 956 954 956 956 957 957 961 959 959 956 953 951 950 950 953 954 957 961 967 972 976 979 981 981 981 981 981 982 984 984 985 985 988 990 992 992 992 988 987 987 987 985 985 982 979 978 976 975 975 973 973 973 973 975 975 975 975 975 975 975 973 973 973 973 973 0 975 975 978 978 976 976 978 978 978 979 981 981 984 985 987 992 993 996 998 1001 1004 0 0 0 0 0 0 0 990 985 982 979 978 976 975 973 973 973 976 981 981 982 985 988
978 976 976 973 972 969 963 960 954 950 944 940 936 933 929 926 924 922 920 918 916 916 914 913 913 913 913 913 913 913 914 914 914 914 914 914 916 916 916 917 918 918 920 920 921 922 922 922 922 922 922 922 922 922 921 921 921 920 920 921 921 921 920 920 918 918 917 917 916 916 914 914 914 916 916 917 918 920 922 924 925 926 928 928 929 930 933 937 941 946 950 954 959 964 967 969 970 972 973 973 975 976 976 976 978 979 979 979 979 979 979 979 978 978 978 976 975 973 972 970 967 966 966 964 964 964 964 966 966 967 969 972 975 978 979 982 985 987 987 987 985 982 979 976 972 969 966 964 963 961 961 961 963 963 964 967 970 973 976 978 981 982 984 984 984 984 984 985 984 984 982 981 981 979 976 975 973 973 972 972 973 975 976 978 978 979 981 982 984 984 984 984 985 985 985 985 984 982 982 982 981 979 979 979 979 978 976 975 973 972 970 967 967 967 966 967 967 969 970 970 972 973 973 975 975 975 976 975 975 975 975 976 976 976 976 975 975 973 973 972 970 969 967 967 966 964 964 963 963 963 960 960 959 959 957 957 957 957 957 957 957 957 959 959 960 960 961 961 961 961 961 960 960 960 960 960 960 960 960 960 960 960 960 960 961 961 960 959 957 957 959 960 961 964 966 969 973 976 975 976 976 976 976 976 976 976 976 979 982 982 982 985 987 988 990 990 992 993 995 995 996 996 996 998 0 0 0 0 0 0 0 0 0 0 966 966 966 966 966 966 966 966 966 966 966 964 963 960 957 954 953 951 951 951 950 951 954 956 957 960 963 964 966 964 964 963 961 960 957 956 954 954 954 954 956 957 960 960 956 953 950 948 947 947 948 950 953 957 963 969 973 976 978 978 978 979 979 979 981 981 982 984 985 985 987 988 987 985 985 984 984 982 982 981 979 976 975 973 972 972 972 970 970 970 972 972 973 972 972 972 972 970 970 970 972 0 972 972 973 973 973 973 973 973 975 975 976 976 979 981 982 987 990 993 995 998 999 0 0 0 0 0 0 0 0 981 978 976 975 972 972 970 970 970 972 976 976 978 0 982
