0 0 0 0 488 488 488 488 488 488 488 488 488 487 487 487 487 487 487 487 488 488 488 489 489 489 489 489 489 489 489 489 489 489 489 489 489 489 489 489 489 489 489 489 489 488 488 488 487 487 487 487 487 487 487 487 487 488 489 489 489 489 489 489 489 489 488 488 487 487 487 487 487 487 487 487 487 487 487 487 487 487 487 488 488 488 489 489 489 489 489 489 489 489 489 489 488 488 488 488 488 488 488 488 488 488 489 489 489 488 488 488 488 488 487 487 487 487 487 487 487 488 488 488 488 488 488 488 488 488 487 487 487 487 487 487 487 487 487 487 487 488 488 488 488 488 488 488 488 488 488 488 488 487 487 487 487 488 488 488 488 488 488 488 488 488 488 488 488 488 488 488 488 488 488 488 488 488 488 488 488 489 489 489 489 489 489 489 489 489 489 489 489 489 488 488 488 487 487 487 487 486 486 486 486 486 486 487 487 487 487 487 488 488 488 488 489 489 489 489 489 489 489 489 489 489 489 489 489 489 489 489 489 489 488 488 488 488 488 487 487 487 487 486 486 486 486 486 486 486 486 486 486 486 486 486 487 487 487 487 487 487 487 487 487 487 487 487 487 487 487 487 487 487 487 487 487 487 487 487 486 486 486 486 486 486 487 487 487 487 487 487 487 487 487 487 487 487 487 487 487 487 487 487 487 487 487 487 487 487 487 487 487 487 488 488 488 488 487 487 487 487 487 487 487 487 487 487 487 487 487 487 487 487 487 487 487 487 487 487 487 487 487 487 487 487 487 487 487 487 487 487 487 487 487 487 487 487 487 487 487 488 488 488 488 488 488 488 488 487 487 487 487 487 487 487 487 487 487 487 487 487 487 486 486 486 486 486 486 486 486 486 487 487 487 486 486 486 486 486 486 486 486 486 486 486 486 486 486 486 486 486 486 486 486 486 486 486 486 486 486 486 486 485 485 485 486 485 485 485 485 485 485 485 485 485 485 485 485 485 485 485 485 485 485 485 485 485 485 485 485 484 484 484 484 484 484 485 485 485 485 485 485 485 484 484 484 484 485 485 484 484 484 484 0 0 0 0 0 0
0 0 0 0 487 487 487 487 487 487 487 487 487 487 487 487 487 487 487 487 487 488 488 488 488 488 489 489 489 489 489 488 488 488 488 488 488 488 488 488 488 488 488 488 488 488 487 487 487 487 487 487 487 487 487 487 487 488 488 488 489 489 488 488 488 488 488 487 487 487 487 486 486 486 486 486 486 486 486 486 486 487 487 487 487 487 488 488 489 489 489 489 489 489 488 488 488 487 487 487 487 487 487 487 487 488 488 488 488 488 488 487 487 487 487 487 487 487 487 487 487 487 487 487 487 487 487 487 487 487 487 487 487 486 486 486 486 486 487 487 487 487 487 487 487 488 488 488 488 488 487 487 487 487 487 487 487 487 487 487 487 487 487 487 488 488 488 488 488 488 488 487 487 487 487 487 487 487 487 488 488 488 488 489 489 489 489 489 489 489 489 488 488 488 488 487 487 487 487 487 486 486 486 486 486 486 486 486 486 487 487 487 487 487 488 488 488 489 489 489 489 489 489 489 489 489 489 489 489 489 488 488 488 488 487 487 487 487 487 487 486 486 486 486 486 486 486 486 486 486 486 486 486 486 486 486 486 486 486 486 487 487 487 487 487 487 487 487 487 487 487 487 487 487 487 487 487 486 486 486 486 486 486 486 486 486 486 486 487 487 487 487 487 487 487 486 486 486 486 486 486 486 486 486 486 487 487 487 487 487 487 487 487 487 487 487 487 487 487 487 487 487 487 487 487 487 487 487 487 487 487 487 487 487 487 487 487 487 487 487 487 487 487 487 487 487 487 487 487 487 487 486 486 486 486 486 487 487 487 487 487 487 487 487 487 487 487 487 487 487 487 487 487 487 486 486 486 486 486 486 486 486 486 486 486 486 486 486 486 486 486 486 486 486 486 486 486 486 486 486 486 486 486 486 486 486 486 486 486 486 486 486 486 486 486 486 485 485 485 485 485 485 485 485 485 485 485 485 485 484 484 484 484 484 484 484 484 485 485 485 485 485 485 485 485 484 484 484 484 484 484 484 483 484 484 484 484 484 484 484 484 484 484 484 484 484 484 484 484 484 484 484 483 483 0 0 0 0 0 0
0 0 0 0 487 487 487 487 487 487 487 487 487 487 487 486 486 486 486 487 487 487 487 487 487 488 488 488 488 488 488 488 488 488 488 488 488 488 488 488 488 488 488 488 487 487 487 487 486 486 486 486 486 486 486 487 487 487 487 488 488 488 488 488 487 487 487 487 486 486 486 486 486 486 486 486 486 486 486 486 486 486 486 486 487 487 487 488 488 488 488 488 488 488 488 487 487 487 487 487 487 487 487 487 487 487 487 487 487 487 487 487 487 487 487 486 486 486 486 486 486 486 486 487 487 487 487 487 487 487 486 486 486 486 486 486 486 486 486 486 486 487 487 487 487 487 487 487 487 487 487 487 487 487 487 487 487 487 487 487 487 487 487 487 487 487 487 487 487 487 487 487 487 487 487 487 487 487 487 487 487 488 488 488 488 488 488 488 488 488 488 488 488 487 487 487 487 487 486 486 486 486 486 485 485 485 486 486 486 486 486 487 487 487 487 487 488 488 488 488 488 489 489 489 488 488 488 488 488 488 488 487 487 487 487 487 487 487 486 486 486 486 486 485 485 485 485 485 485 485 485 485 485 485 485 485 485 486 486 486 486 486 486 486 486 486 486 486 486 486 486 486 486 486 486 486 486 486 486 486 485 485 485 485 485 485 486 486 486 486 486 486 486 486 486 486 486 486 485 485 485 485 486 486 486 486 486 486 486 486 486 487 487 487 487 487 487 487 487 486 486 486 486 486 486 486 486 486 486 486 486 487 487 487 487 487 487 487 487 486 486 486 486 486 486 486 486 486 486 486 486 486 486 486 486 486 486 486 486 486 487 487 487 487 487 487 487 487 487 487 486 486 486 486 486 486 486 486 486 486 486 486 486 486 485 485 485 485 485 485 486 486 486 486 486 486 486 486 486 485 485 485 485 485 485 485 485 485 485 485 485 485 485 485 485 485 484 484 484 484 484 484 484 484 484 484 484 484 484 484 484 484 484 484 484 484 484 484 484 484 484 484 484 484 484 484 484 484 484 483 483 483 483 483 483 483 483 483 483 483 484 484 484 484 484 484 484 484 484 484 483 483 483 483 0 0 0 0 0 0
0 0 0 0 486 486 486 486 486 486 486 486 486 486 486 486 486 486 486 486 486 486 487 487 487 487 487 487 487 487 487 487 487 487 487 487 487 487 487 487 487 487 487 487 487 487 487 486 486 486 486 486 486 486 486 486 487 487 487 487 487 487 487 487 487 487 487 486 486 486 486 485 485 485 485 485 485 485 485 485 485 485 485 486 486 486 487 487 487 487 488 488 488 487 487 487 487 486 486 486 486 486 486 486 486 486 487 487 487 487 487 486 486 486 486 486 486 486 486 486 486 486 486 486 486 486 486 486 486 486 486 486 485 485 485 485 485 486 486 486 486 486 486 486 486 487 487 487 487 487 487 487 487 487 487 486 486 486 486 486 486 486 486 486 487 487 487 487 487 487 486 486 486 486 486 486 486 487 487 487 487 487 487 488 488 488 488 488 488 488 488 487 487 487 487 487 486 486 486 486 486 485 485 485 485 485 485 485 485 486 486 486 486 487 487 487 487 488 488 488 488 488 488 488 488 488 488 488 487 487 487 487 487 487 487 486 486 486 486 485 485 485 485 485 485 484 484 484 484 484 484 484 484 484 484 484 484 485 485 485 485 485 485 485 485 485 485 485 485 485 486 486 486 486 486 486 485 485 485 485 485 484 484 484 484 484 485 485 486 486 486 486 486 486 485 485 485 485 484 484 484 484 485 485 485 485 485 485 486 486 486 486 486 486 486 486 486 486 486 486 486 486 486 486 486 486 486 486 486 486 486 486 486 486 486 486 486 486 486 486 486 486 486 486 486 486 486 486 486 486 485 485 485 485 485 485 485 486 486 486 486 486 486 486 486 486 486 486 486 486 486 486 486 486 486 485 485 485 485 485 485 485 485 485 485 485 485 485 485 485 485 485 485 485 485 485 485 485 485 485 485 484 484 484 484 484 484 484 484 484 484 484 484 484 484 484 484 484 484 483 483 483 483 483 483 483 483 483 483 483 483 483 483 483 483 483 484 484 484 484 484 484 484 483 483 483 483 483 483 483 483 482 482 482 482 482 482 482 483 483 483 483 483 483 483 483 483 483 483 483 483 483 482 482 0 0 0 0 0 0
0 0 0 0 486 486 486 486 486 486 486 486 486 486 486 486 486 486 486 486 486 486 486 486 486 487 487 487 487 487 487 487 487 487 487 487 487 487 487 487 487 487 487 487 487 486 486 486 486 485 485 485 485 485 485 486 486 486 486 487 487 487 487 487 486 486 486 486 486 485 485 485 484 484 484 484 484 484 484 484 484 484 484 485 485 486 486 486 487 487 487 487 487 487 487 486 486 486 486 486 486 486 486 486 486 486 486 486 486 486 486 486 486 486 486 485 485 485 485 485 485 485 485 485 485 486 486 486 485 485 485 485 485 485 485 485 485 485 485 485 485 486 486 486 486 486 486 486 486 486 486 486 486 486 486 486 486 486 486 486 486 486 486 486 486 486 486 486 486 486 486 486 486 486 486 486 486 486 486 486 487 487 487 487 487 487 487 487 487 487 487 487 487 487 487 486 486 486 486 485 485 485 485 484 484 484 484 484 484 485 485 486 486 486 486 487 487 487 487 487 487 487 487 487 487 487 487 487 487 487 487 486 486 486 486 486 485 485 485 484 484 484 484 484 484 484 484 484 484 484 484 484 484 484 484 484 484 484 484 484 484 484 484 484 484 484 484 484 484 484 485 485 485 485 485 485 485 484 484 484 484 484 484 484 484 484 484 484 485 485 485 485 485 485 484 484 484 484 484 484 484 484 484 484 484 484 484 484 485 485 485 485 485 486 486 486 486 486 485 485 485 485 485 485 485 485 485 485 485 485 486 486 486 486 486 486 486 486 486 486 485 485 485 485 485 485 485 485 485 485 485 484 484 484 484 484 484 485 485 485 485 486 486 486 486 486 486 486 486 486 485 485 485 485 485 485 485 484 484 484 484 484 484 484 484 484 484 484 484 484 484 484 484 484 484 484 484 484 484 484 484 484 484 484 484 484 484 484 484 484 484 484 484 483 483 483 483 483 483 483 483 483 483 483 483 483 483 483 483 483 483 483 483 483 483 483 483 483 483 483 483 483 483 483 483 483 482 482 482 482 482 481 481 481 481 481 481 482 482 482 482 482 482 482 483 483 483 483 483 483 483 482 482 481 0 0 0 0 0 0
0 0 0 0 485 485 485 485 485 486 485 485 485 485 485 485 485 485 485 485 485 485 486 486 486 486 486 486 486 486 486 486 486 486 486 486 486 486 486 486 486 486 486 486 486 486 486 485 485 484 484 484 484 484 485 485 486 486 486 486 486 486 486 486 486 486 485 485 485 484 484 484 484 484 484 484 484 484 483 484 483 484 484 484 484 485 485 486 486 486 486 486 486 486 486 486 485 485 485 485 485 485 485 485 485 485 486 486 485 485 485 485 485 485 485 484 484 484 484 484 484 484 484 484 484 484 485 485 484 484 484 484 484 484 484 484 484 484 484 484 485 485 485 485 485 485 486 486 486 485 485 486 485 486 486 486 485 485 485 485 485 485 485 485 485 485 485 485 485 485 485 485 485 485 485 485 485 486 486 486 486 486 487 487 487 487 487 487 487 487 487 487 486 486 486 486 486 485 485 485 484 484 484 484 484 484 484 484 484 484 484 485 485 485 486 486 486 487 487 487 487 487 487 487 487 487 487 486 486 486 486 486 486 486 485 485 484 484 484 484 484 484 483 483 484 484 484 484 484 484 484 483 483 483 483 483 483 483 484 484 484 484 484 484 484 484 484 484 484 484 484 484 484 484 484 484 484 484 484 484 484 483 483 483 483 483 484 484 484 484 484 484 484 484 484 484 483 483 483 483 483 483 483 483 483 483 484 484 484 484 484 484 484 485 485 485 485 485 484 484 484 484 484 484 484 484 484 484 484 485 485 485 485 486 486 486 486 486 485 485 485 485 484 484 484 484 484 484 484 484 484 484 484 484 484 484 484 484 484 484 484 485 485 485 485 485 485 485 485 485 485 484 484 484 484 484 484 484 484 484 484 484 484 483 483 483 483 483 483 483 483 484 484 484 484 484 484 484 484 484 484 484 483 483 483 483 483 483 483 483 483 483 483 483 483 483 483 482 482 482 482 482 482 482 482 482 482 482 482 482 482 482 482 482 482 482 483 482 482 482 482 482 482 482 482 481 481 481 481 481 481 481 481 481 481 481 481 481 481 481 481 481 481 482 482 482 482 482 482 482 482 482 481 481 0 0 0 0 0 0
0 0 0 0 484 484 484 485 485 485 485 485 484 484 484 484 484 484 484 484 485 485 485 485 485 485 485 485 486 486 486 486 486 486 486 485 485 486 486 486 485 486 486 486 485 485 485 485 484 484 484 484 484 484 484 484 485 485 485 486 486 486 486 485 485 485 484 484 484 484 484 483 483 483 483 483 483 483 483 483 483 483 483 483 484 484 484 485 486 486 486 486 486 486 485 485 484 484 484 484 484 484 484 484 484 485 485 485 484 484 484 484 484 484 484 484 484 483 483 483 483 483 483 483 484 484 484 484 484 484 484 484 484 484 484 484 484 484 484 484 484 484 484 484 484 485 485 485 485 484 484 485 485 485 485 485 485 485 484 484 484 484 484 484 484 484 484 484 484 484 484 484 484 484 484 484 484 485 485 485 486 486 486 486 486 487 487 487 487 487 486 486 486 486 486 485 485 485 484 484 484 484 484 484 483 483 483 483 483 484 484 484 484 485 485 486 486 486 486 486 486 486 486 486 486 486 486 486 486 485 485 485 485 485 484 484 484 484 483 483 483 483 483 483 483 483 483 483 483 483 483 483 483 483 483 483 483 483 483 483 483 483 483 483 483 483 483 483 483 483 483 483 483 483 483 483 483 483 483 483 483 483 483 483 483 483 483 483 483 484 484 483 483 483 483 483 483 483 483 482 482 482 482 483 483 483 483 483 483 483 483 484 484 484 484 484 484 484 484 484 484 484 484 484 484 484 484 484 484 484 484 484 485 485 485 485 485 485 485 485 484 484 484 484 484 484 484 484 484 484 484 483 483 483 483 483 483 483 483 484 484 484 484 484 484 484 484 484 484 484 484 484 484 484 484 484 484 483 483 483 483 483 483 483 483 483 483 483 483 483 483 483 483 483 483 483 483 483 483 483 483 483 483 483 483 483 482 482 482 482 482 482 482 482 482 482 482 482 481 481 481 481 481 481 481 481 481 481 481 481 482 482 482 482 482 482 482 482 481 481 481 481 481 481 481 481 481 481 481 481 480 480 480 480 480 480 480 480 480 480 481 481 481 481 481 481 481 481 482 482 481 481 481 480 480 0 0 0 0 0
0 0 0 0 484 484 484 484 484 484 484 484 484 484 484 484 484 484 484 484 484 484 484 484 484 484 484 484 485 485 485 485 485 485 485 485 484 485 485 484 484 485 485 485 484 484 484 484 484 483 483 483 483 483 484 484 484 484 485 485 485 485 484 484 484 484 484 484 483 483 483 483 483 483 482 482 482 482 482 482 482 482 483 483 483 483 484 484 484 485 485 485 485 485 484 484 484 484 484 483 484 484 484 484 484 484 484 484 484 483 483 483 483 483 483 483 483 483 483 483 483 483 483 483 483 483 483 483 483 483 483 483 483 483 483 483 483 483 483 483 483 483 484 484 484 484 484 484 484 484 484 484 484 484 484 484 484 484 484 484 484 484 484 484 484 484 484 484 484 484 484 484 483 483 483 484 484 484 484 484 485 485 485 486 486 486 486 486 486 486 486 486 485 485 485 485 484 484 484 484 484 483 483 483 483 483 483 483 483 483 483 483 484 484 484 485 485 486 486 486 486 486 486 486 485 485 485 485 484 484 484 484 484 484 484 484 483 483 483 483 483 482 482 482 483 483 483 483 483 483 483 483 482 482 482 482 482 482 482 482 482 482 482 482 482 482 482 482 482 482 482 482 483 483 483 483 483 483 482 482 482 482 482 482 482 483 483 483 483 483 483 483 483 483 483 482 482 482 482 482 482 481 481 482 482 482 482 482 483 483 483 483 483 483 483 483 483 483 483 483 483 483 483 483 483 483 483 483 483 483 484 484 484 484 484 484 484 484 484 484 484 484 484 484 484 484 483 483 483 483 483 483 483 483 483 483 483 483 483 483 483 483 483 483 483 484 484 484 483 483 483 483 483 483 483 483 483 483 483 483 483 482 482 482 482 482 482 482 482 482 482 482 482 482 483 483 483 483 483 483 483 483 482 482 482 482 482 481 481 481 481 481 481 481 481 481 481 481 481 481 481 481 481 481 481 481 481 481 481 481 481 481 481 481 481 481 481 481 481 481 481 480 480 480 480 480 480 480 480 480 480 480 480 480 480 480 480 480 480 480 480 480 480 481 481 481 481 481 481 481 481 481 480 480 479 0 0 0 0 0
0 0 0 0 483 483 483 484 484 484 484 484 484 484 484 483 484 484 483 483 483 483 483 483 484 484 484 484 484 484 484 484 484 484 484 484 484 484 484 484 484 484 484 484 484 484 483 483 483 483 483 483 483 483 483 483 484 484 484 484 484 484 484 484 483 483 483 483 483 483 482 482 482 482 482 482 481 481 481 481 481 481 482 482 483 483 483 484 484 484 484 484 484 484 484 483 483 483 483 483 483 483 483 483 483 483 483 483 483 483 483 483 482 482 482 482 482 482 482 482 482 482 482 482 482 482 482 482 483 483 483 483 483 483 483 483 482 483 483 483 483 483 483 483 483 483 483 483 483 483 483 483 483 483 483 483 483 484 483 483 483 483 483 483 483 483 483 483 483 483 483 483 483 483 483 483 483 483 484 484 484 484 484 485 485 485 485 486 485 485 485 485 485 484 484 484 484 484 484 483 483 483 483 483 482 482 482 482 482 482 483 483 483 483 484 484 484 484 485 485 485 485 485 484 484 484 484 484 484 484 484 484 483 483 483 483 483 483 482 482 482 482 482 482 482 482 482 482 482 482 482 482 482 482 481 481 481 481 481 481 481 481 481 481 481 481 481 481 481 481 481 481 482 482 482 482 482 482 481 481 482 482 482 482 482 482 482 482 482 482 482 482 482 482 482 481 481 481 481 481 481 481 481 481 481 481 481 481 482 482 482 482 482 483 483 483 483 483 483 483 483 482 482 482 482 482 482 483 483 483 483 483 484 484 484 484 484 484 484 484 484 483 483 483 483 483 483 483 483 483 483 482 482 482 482 482 482 482 482 482 482 482 483 483 483 483 483 483 483 483 483 483 483 483 483 483 483 482 482 482 482 481 481 481 481 481 481 481 481 481 481 481 482 482 482 482 482 482 482 482 482 482 482 482 481 481 481 481 481 481 481 481 481 481 481 481 481 481 480 480 480 480 480 480 480 480 480 480 481 481 481 481 481 481 481 481 481 480 480 480 480 480 480 480 480 480 480 480 480 480 480 480 480 479 479 479 479 479 479 479 479 480 480 480 480 480 480 481 481 481 480 480 480 479 479 0 0 0 0 0
0 0 0 0 483 483 483 483 483 483 483 483 483 483 483 483 483 483 483 483 483 483 483 483 483 483 483 483 483 483 484 483 483 483 483 483 483 483 483 483 483 483 483 483 483 483 483 483 482 482 482 482 482 482 483 483 483 483 483 483 483 483 483 483 483 483 482 482 482 482 481 481 481 481 481 481 481 481 481 481 481 481 481 481 482 482 483 483 483 483 483 483 483 483 483 483 483 482 482 482 482 482 483 483 483 482 482 482 482 482 482 481 481 481 481 481 481 481 481 481 481 481 481 481 481 481 481 482 482 482 482 482 482 482 482 482 482 482 482 482 482 482 482 482 482 482 482 482 482 482 482 482 482 483 483 483 483 483 483 483 483 483 483 482 483 483 483 483 483 483 482 482 482 482 482 482 482 483 483 483 483 484 484 484 484 484 484 485 484 484 484 484 484 484 484 483 483 483 483 483 483 482 482 482 482 481 481 481 481 481 482 482 482 483 483 483 484 484 484 484 484 484 484 484 484 483 483 483 483 483 483 483 483 483 483 483 482 482 482 481 481 481 481 481 481 481 482 482 482 482 482 481 481 481 481 481 481 481 481 481 481 481 481 481 481 481 480 480 480 480 481 481 481 481 481 481 481 481 481 481 481 481 481 481 481 481 481 481 481 481 481 481 481 481 481 481 481 481 480 480 480 480 480 481 481 481 481 481 481 481 481 481 481 482 482 482 482 482 482 482 482 482 481 481 481 481 481 482 482 482 483 483 483 483 483 483 483 483 483 483 483 483 483 483 483 483 483 482 482 482 482 482 481 481 481 481 481 481 481 481 481 481 482 482 482 482 482 482 482 482 482 482 482 482 482 482 482 482 481 481 481 481 481 481 480 480 480 480 480 481 481 481 481 481 481 481 481 482 482 481 481 481 481 481 481 481 481 481 480 480 480 480 480 480 480 480 480 480 480 480 480 480 480 480 480 480 480 480 480 480 480 480 480 480 480 480 480 480 480 480 479 479 479 479 479 479 479 479 479 479 479 479 479 479 479 479 479 479 479 479 479 479 479 480 480 480 480 480 480 480 480 479 479 479 478 0 0 0 0 0
0 0 0 0 482 482 483 483 483 483 483 483 483 483 483 483 483 482 482 482 482 482 482 482 482 482 482 483 483 483 483 483 483 483 483 483 483 483 482 482 483 483 483 482 482 482 482 482 481 481 481 481 481 481 482 482 482 483 483 483 483 483 482 482 482 482 482 481 481 481 481 481 481 481 481 480 480 480 480 480 480 480 481 481 481 481 482 482 483 483 483 483 483 482 482 482 482 482 481 481 481 482 482 482 482 481 481 481 481 481 481 481 481 481 481 481 481 481 481 481 480 480 481 481 481 481 481 481 481 481 481 481 481 481 481 481 481 481 481 481 481 481 481 481 481 481 481 481 481 481 481 481 481 482 482 482 482 482 482 482 482 482 482 482 482 482 482 482 482 482 482 481 481 481 481 481 481 482 482 482 483 483 483 483 484 484 484 484 484 484 484 484 483 483 483 483 483 483 482 482 482 482 481 481 481 481 481 481 481 481 481 481 482 482 483 483 483 483 483 483 483 483 483 483 483 483 482 482 482 482 482 482 482 482 482 482 482 481 481 481 481 481 481 481 481 481 481 481 481 481 481 481 481 481 481 480 480 480 480 480 480 480 480 480 480 480 480 480 480 480 480 480 480 480 480 480 480 480 480 480 481 481 481 481 481 481 481 481 481 481 481 481 481 481 480 480 480 480 480 480 480 480 480 480 480 480 480 480 480 480 481 481 481 481 481 481 481 481 481 481 481 481 481 481 481 481 481 481 481 481 482 482 482 483 483 483 483 483 483 483 483 483 483 482 482 482 482 482 482 482 481 481 481 481 481 481 481 481 481 481 481 481 481 481 481 481 481 481 481 481 482 481 481 481 481 481 481 481 481 481 481 480 480 480 480 480 480 480 480 480 480 480 480 481 481 481 481 481 481 481 481 481 481 481 480 480 480 480 480 480 480 480 480 480 480 480 480 480 480 480 480 480 480 480 479 479 479 480 480 480 480 480 480 480 480 480 480 479 479 479 479 479 479 478 478 478 478 479 479 479 479 479 479 479 479 479 479 478 478 478 479 479 479 479 479 479 480 480 480 479 479 479 479 478 478 0 0 0 0 0
0 0 0 0 482 482 482 482 482 482 482 482 482 482 482 482 482 482 482 482 481 481 481 481 481 481 481 482 482 482 482 482 482 482 482 482 482 482 481 481 482 482 482 481 481 481 481 481 481 481 481 481 481 481 481 481 482 482 482 482 482 482 481 481 481 481 481 481 481 480 480 480 480 480 480 480 480 480 480 480 480 480 480 480 481 481 481 481 482 482 482 482 482 481 481 481 481 481 481 481 481 481 481 481 481 481 481 481 480 480 480 480 480 480 480 480 480 480 480 480 480 480 480 480 480 480 480 480 481 481 481 481 481 481 481 481 481 481 481 481 481 481 481 481 481 481 481 481 481 480 481 481 481 481 481 481 481 481 481 481 481 481 481 481 481 481 481 481 481 481 481 481 481 481 481 481 481 481 481 481 482 482 482 483 483 483 483 483 483 483 483 483 483 483 482 482 482 482 481 481 481 481 481 481 481 480 480 480 480 480 480 481 481 481 482 482 482 482 482 482 482 482 482 482 482 481 481 481 481 481 481 481 481 481 481 481 481 481 481 481 481 481 481 481 481 481 481 481 481 481 481 481 481 480 480 480 480 480 480 480 480 480 480 480 480 479 479 479 479 479 479 479 480 480 480 480 480 480 480 480 480 480 480 480 481 481 481 481 481 480 480 480 480 480 480 480 480 480 480 479 479 479 479 480 480 480 480 480 480 480 480 480 480 480 481 481 481 481 481 481 481 481 481 480 480 480 480 481 481 481 481 481 482 482 482 482 482 482 482 482 482 482 482 482 482 482 482 481 481 481 481 481 481 480 480 480 480 480 480 480 480 480 480 481 481 481 481 481 481 481 481 481 481 481 481 481 481 481 480 480 480 480 480 480 480 480 480 480 480 480 480 480 480 480 480 480 481 481 481 481 480 480 480 480 480 480 480 480 480 480 480 480 480 480 479 479 479 479 479 479 479 479 479 479 479 479 479 479 479 479 479 479 479 479 479 479 479 479 479 479 478 478 478 478 478 478 478 478 478 478 478 479 479 479 478 478 478 478 478 478 478 478 478 478 479 479 479 479 479 479 479 478 478 478 477 0 0 0 0 0
0 0 0 0 481 481 481 481 482 481 481 481 481 481 481 481 481 481 481 481 481 481 481 481 481 481 481 481 481 481 481 481 481 481 481 481 481 481 481 481 481 481 481 481 481 481 480 480 480 480 480 480 480 480 481 481 481 481 481 481 481 481 481 481 481 480 480 480 480 480 480 480 480 480 480 480 479 479 479 479 480 480 480 480 480 480 481 481 481 481 481 481 481 481 481 481 480 480 480 480 480 480 480 480 480 480 480 480 480 480 480 479 479 479 479 479 480 480 480 480 480 479 480 480 480 480 480 480 480 480 480 480 480 480 480 480 480 480 480 480 480 480 480 480 480 480 480 480 480 480 480 480 480 480 480 481 481 481 481 481 481 481 481 481 481 481 481 481 481 481 480 480 480 480 480 480 480 480 480 481 481 481 481 482 482 482 482 482 483 483 482 482 482 482 481 481 481 481 481 481 481 481 480 480 480 480 480 480 480 480 480 480 480 481 481 481 481 481 481 481 481 481 481 481 481 481 481 480 480 481 481 481 481 481 481 481 481 481 481 480 480 480 480 480 480 480 481 481 481 481 480 480 480 480 480 480 480 480 480 479 479 479 479 479 479 479 479 479 479 479 479 479 479 479 479 479 479 479 479 480 480 480 480 480 480 480 480 480 480 480 480 480 480 480 479 479 479 479 479 479 479 479 479 479 479 479 479 479 479 479 480 480 480 480 480 480 480 480 480 480 480 480 480 480 480 480 480 480 480 480 481 481 481 481 481 481 481 481 481 481 481 481 481 481 481 481 481 481 481 481 481 480 480 480 480 480 480 480 480 480 480 480 480 480 480 480 480 480 480 480 480 480 480 480 480 480 480 480 480 480 480 480 480 479 479 479 479 479 479 479 479 480 480 480 480 480 480 480 480 480 480 480 480 480 479 479 479 479 479 479 479 479 479 479 479 479 479 479 479 479 479 479 479 479 479 479 479 479 479 479 479 479 479 479 479 479 479 479 478 478 478 477 477 477 477 477 477 477 477 478 478 478 478 478 478 478 478 477 477 477 477 477 477 478 478 478 479 479 479 478 478 478 477 477 477 476 0 0 0 0
0 0 0 0 481 481 481 481 481 481 481 481 481 481 481 481 481 481 481 481 481 480 480 480 480 480 480 481 481 481 481 481 481 481 481 481 480 480 480 480 480 480 480 480 480 480 480 480 480 480 480 480 480 480 480 480 480 480 480 480 480 480 480 480 480 480 480 480 480 480 480 480 479 479 479 479 479 479 479 479 479 479 479 479 480 480 480 480 480 480 480 480 480 480 480 480 480 480 480 480 480 480 480 480 480 480 480 479 479 479 479 479 479 479 479 479 479 479 479 479 479 479 479 479 479 479 479 480 480 480 480 480 480 480 480 480 480 480 480 480 480 480 480 480 480 480 480 480 479 479 479 479 479 479 480 480 480 480 480 480 480 480 480 480 480 480 480 480 480 480 480 480 480 480 480 480 480 480 480 480 480 480 481 481 481 481 481 481 482 482 481 481 481 481 481 481 481 480 480 480 480 480 480 480 480 479 479 479 479 479 479 480 480 480 480 480 480 480 480 480 480 480 480 480 480 480 480 480 480 480 480 480 480 480 480 480 480 480 480 480 480 480 480 480 480 480 480 480 480 480 480 480 480 480 480 479 479 479 479 479 479 479 479 479 479 478 478 478 478 478 478 479 479 479 479 479 479 479 479 479 479 479 480 480 480 480 480 480 480 480 480 480 479 479 479 479 479 479 479 479 479 479 479 479 479 479 479 479 479 479 479 479 479 479 480 480 480 480 480 480 480 480 479 479 479 479 479 479 480 480 480 480 480 481 481 481 481 481 481 481 481 481 481 481 481 481 481 481 481 480 480 480 480 480 479 479 479 479 479 479 479 479 479 479 479 480 480 480 480 480 480 480 480 480 480 480 480 480 480 480 480 479 479 479 479 479 479 479 479 479 479 479 479 479 480 480 480 480 480 480 480 479 479 479 479 479 479 479 479 479 479 479 479 479 479 479 479 479 479 479 478 478 478 478 478 478 478 478 478 478 478 478 479 479 479 479 478 478 478 477 477 477 477 477 477 477 477 477 477 477 477 478 478 478 477 477 477 477 477 477 477 477 477 477 477 478 478 478 478 478 477 477 477 477 476 476 0 0 0 0
0 0 0 0 481 481 481 481 481 481 480 480 480 480 480 480 480 480 480 480 480 480 480 480 480 480 480 480 480 480 480 480 480 480 480 480 480 480 480 480 480 480 480 480 480 479 479 479 479 479 479 479 479 480 480 480 480 480 480 480 480 480 480 480 480 480 480 479 479 479 479 479 479 479 479 479 479 479 479 479 479 479 479 479 479 479 480 480 480 480 480 480 480 480 480 479 479 479 479 479 479 479 479 479 479 479 479 479 479 478 478 478 478 478 478 478 478 479 479 479 479 479 479 479 479 479 479 479 479 479 479 479 479 479 479 479 479 479 479 479 479 479 479 479 479 479 479 479 479 479 479 479 479 479 479 479 480 480 480 480 480 480 480 480 480 480 480 480 480 480 480 479 479 479 479 479 479 479 479 479 480 480 480 480 480 481 481 481 481 481 481 481 480 480 480 480 480 480 480 480 480 480 479 479 479 479 479 479 479 479 479 479 479 479 480 480 480 480 479 479 479 479 479 479 479 479 479 479 479 479 479 480 480 480 480 480 480 480 480 480 480 480 480 480 480 480 480 480 480 480 480 479 479 479 479 479 479 479 479 479 479 478 478 478 478 478 478 478 478 478 478 478 478 478 478 478 479 479 479 479 479 479 479 479 479 479 480 480 480 479 479 479 479 479 479 479 479 479 479 479 479 479 479 479 479 479 479 479 479 479 479 479 479 479 479 479 479 479 479 479 479 479 479 479 479 479 479 479 479 479 479 480 480 480 480 480 480 480 480 480 480 480 480 481 480 480 480 480 480 480 480 480 479 479 479 479 479 479 479 479 479 479 479 479 479 479 479 479 479 479 479 479 479 479 479 479 479 479 479 479 479 479 479 479 479 479 479 479 479 479 479 479 479 479 479 479 479 479 479 479 479 479 479 479 479 478 478 478 478 478 478 478 478 478 478 478 478 478 478 478 478 478 478 477 477 477 477 477 477 477 477 478 478 478 478 478 478 478 477 477 477 477 476 476 476 476 476 476 477 477 477 477 477 477 477 477 477 476 476 476 476 476 477 477 477 477 477 477 477 477 477 477 476 476 476 476 0 0 0 0
0 0 0 0 480 480 480 480 480 480 480 480 480 480 480 480 480 480 480 480 480 480 479 479 479 479 480 480 480 480 480 480 480 480 480 480 480 479 479 479 479 479 479 479 479 479 479 479 479 479 479 479 479 479 479 479 479 479 479 479 479 479 479 479 479 479 479 479 479 479 479 479 479 478 478 478 478 478 478 478 478 478 479 479 479 479 479 479 479 479 479 479 479 479 479 479 479 479 479 479 479 479 479 479 479 479 478 478 478 478 477 477 477 477 477 478 478 478 478 478 478 478 478 478 479 479 479 479 479 479 479 479 479 479 479 479 479 479 479 479 479 479 479 479 479 479 479 479 478 478 478 478 478 478 479 479 479 479 480 480 480 480 479 479 479 479 479 479 479 479 479 479 479 479 479 479 479 479 479 479 479 479 479 479 480 480 480 480 480 480 480 480 480 480 480 480 479 479 479 479 479 479 479 479 479 478 478 478 478 478 478 479 479 479 479 479 479 479 479 479 479 478 478 478 479 479 479 479 479 479 479 479 479 479 480 480 480 480 480 480 479 479 479 479 479 479 479 479 479 479 479 479 479 479 479 479 479 478 478 478 478 478 478 477 477 477 477 477 477 477 477 477 478 478 478 478 478 478 478 478 479 479 479 479 479 479 479 479 479 479 479 479 479 478 478 478 478 478 478 478 478 478 478 478 478 478 478 478 478 478 478 478 479 479 479 479 479 479 479 479 479 479 478 478 478 478 478 479 479 479 479 479 479 480 480 480 480 480 480 480 480 480 480 480 480 480 480 480 480 479 479 479 479 479 479 479 479 479 479 479 478 478 478 478 478 478 479 479 479 479 479 479 479 479 479 479 479 479 479 479 479 479 479 478 478 478 478 478 478 478 478 479 479 479 479 479 479 479 479 479 479 479 479 478 478 478 478 478 478 478 478 478 478 478 478 478 478 478 477 477 477 477 477 477 477 477 477 477 477 477 477 477 477 477 477 477 477 477 477 477 476 476 476 476 476 476 476 476 476 476 476 477 477 477 477 476 476 476 476 476 476 476 476 476 476 477 477 477 477 477 476 476 476 476 475 0 0 0 0 0
0 0 0 0 480 480 480 480 480 480 480 480 480 480 480 480 480 480 480 479 479 479 479 479 479 479 479 479 479 479 479 479 479 479 479 479 479 479 479 479 479 479 479 479 479 478 478 478 478 478 478 478 479 479 479 479 479 479 479 479 479 479 479 479 479 479 479 479 479 478 478 478 478 478 478 478 478 478 478 478 478 478 478 478 478 479 479 479 479 479 479 479 479 479 479 478 478 478 478 478 478 478 478 478 478 478 478 477 477 477 477 477 477 477 477 477 477 477 477 478 478 478 478 478 478 478 478 478 478 479 479 479 478 478 478 478 478 478 478 478 478 478 478 478 478 478 478 478 478 477 477 477 477 478 478 478 479 479 479 479 479 479 479 479 479 479 479 479 479 479 479 479 478 478 478 478 478 478 478 478 478 479 479 479 479 479 479 479 480 480 480 479 479 479 479 479 479 479 479 479 479 479 478 478 478 478 478 478 478 478 478 478 478 478 478 478 478 478 478 478 478 478 478 478 478 478 478 478 478 478 478 479 479 479 479 479 479 479 479 479 479 479 479 479 479 479 479 479 479 479 479 479 478 478 478 478 478 478 478 478 477 477 477 477 477 477 477 477 477 477 477 477 477 477 477 477 477 478 478 478 478 478 478 478 479 479 479 479 479 479 479 478 478 478 477 477 477 477 477 478 478 478 478 478 478 478 478 478 478 478 478 478 478 478 478 478 478 478 478 478 478 478 478 478 478 478 478 478 478 478 479 479 479 479 479 479 479 479 479 479 479 479 479 479 479 479 479 479 479 479 479 479 479 479 478 478 478 478 478 478 478 478 478 478 478 478 478 478 478 478 478 478 478 478 478 478 478 478 478 478 478 478 478 478 478 478 478 477 477 478 478 478 478 479 479 479 479 479 479 479 478 478 478 478 477 477 477 477 477 477 477 477 477 477 477 477 477 477 477 477 477 477 477 477 476 476 476 476 476 476 476 477 477 477 477 477 477 477 477 476 476 476 476 475 475 475 475 476 476 476 476 476 476 476 476 476 476 475 475 475 475 475 476 476 476 476 476 476 476 476 476 476 476 475 475 0 0 0 0 0
0 0 0 0 480 480 480 480 479 479 479 479 479 479 479 479 479 479 479 479 479 479 479 479 479 479 479 479 479 479 479 479 479 479 479 479 479 479 478 478 478 478 478 478 478 478 478 477 477 477 478 478 478 478 478 478 478 478 478 478 478 478 478 478 478 478 478 478 478 478 478 477 477 477 477 477 477 477 477 477 477 477 477 478 478 478 478 478 478 478 478 478 478 478 478 478 478 477 477 477 477 477 477 477 477 477 477 477 477 477 477 476 476 476 476 477 477 477 477 477 477 477 477 477 477 478 478 478 478 478 478 478 478 478 477 477 477 477 477 477 477 477 478 478 478 478 478 477 477 477 477 477 477 477 477 477 478 478 478 479 479 479 478 478 478 478 478 478 478 478 478 478 478 478 478 478 478 478 478 478 478 478 478 478 479 479 479 479 479 479 479 479 479 479 479 479 479 479 478 478 478 478 478 478 477 477 477 477 477 477 477 477 477 477 477 477 477 477 477 477 477 477 477 477 477 477 477 477 477 478 478 478 478 478 479 479 479 479 479 479 479 479 479 479 479 479 478 478 478 478 478 478 478 478 478 477 477 477 477 477 477 477 477 477 477 477 477 477 477 477 477 477 477 477 477 477 477 477 477 477 477 478 478 478 478 478 479 479 479 478 478 478 478 477 477 477 477 477 477 477 477 477 477 477 477 477 477 477 477 477 477 477 477 478 478 478 478 478 478 477 477 477 477 477 477 477 477 477 477 478 478 478 478 479 479 479 479 479 479 479 479 479 479 479 479 479 479 479 479 479 478 478 478 478 478 478 478 478 478 478 477 477 477 477 477 477 477 477 477 477 477 477 477 477 477 477 477 477 478 478 478 478 478 478 477 477 477 477 477 477 477 477 478 478 478 478 478 478 478 478 478 477 477 477 477 477 477 477 477 477 477 477 477 477 477 477 477 477 477 477 477 477 476 476 476 476 476 476 476 476 476 476 476 477 477 477 477 476 476 476 476 475 475 475 475 475 475 475 475 475 475 476 476 476 476 475 475 475 475 475 475 475 475 475 475 475 476 476 476 476 476 475 475 475 475 0 0 0 0 0
0 0 0 0 480 480 479 479 479 479 479 479 479 479 479 479 479 479 479 479 479 478 478 478 478 478 478 479 479 479 479 479 478 478 478 478 478 478 478 478 478 478 477 477 477 477 477 477 477 477 477 477 477 478 478 478 478 478 478 478 478 477 477 477 477 478 478 477 477 477 477 477 477 477 477 477 477 477 477 477 477 477 477 477 477 477 477 478 478 478 478 478 478 477 477 477 477 477 477 477 477 477 477 477 477 477 477 476 476 476 476 476 476 476 476 476 476 476 476 477 477 477 477 477 477 477 477 477 477 477 477 477 477 477 477 477 477 477 477 477 477 477 477 477 477 477 477 477 477 477 477 477 477 477 477 477 477 477 478 478 478 478 478 478 477 477 477 477 477 477 477 477 477 477 477 477 477 477 477 477 477 477 478 478 478 478 478 478 478 478 478 478 478 478 478 478 478 478 478 478 478 477 477 477 477 477 477 477 477 477 477 477 477 477 477 477 477 477 477 477 477 477 477 477 477 477 477 477 477 477 477 477 478 478 478 478 479 479 479 479 478 478 478 478 478 478 478 478 478 477 477 477 477 477 477 477 477 477 477 477 477 477 476 476 476 476 476 476 476 476 476 476 476 477 477 477 477 477 477 477 477 477 477 477 478 478 478 478 478 478 478 477 477 477 477 477 477 477 477 477 477 477 477 477 477 477 477 477 477 477 477 477 477 477 477 477 477 477 477 477 477 477 477 477 476 476 476 477 477 477 477 477 478 478 478 478 478 479 479 479 479 479 479 479 479 478 478 478 478 478 478 478 478 478 477 477 477 477 477 477 477 477 477 477 477 477 477 477 477 477 477 477 477 477 477 477 477 477 477 477 477 477 477 477 477 477 477 477 477 477 477 477 477 477 478 478 478 478 478 477 477 477 477 477 477 476 476 476 476 476 476 476 476 476 476 476 476 476 476 476 476 476 476 476 476 475 475 475 475 475 476 476 476 476 476 476 476 476 476 476 475 475 475 475 474 474 475 475 475 475 475 475 475 475 475 475 475 474 474 474 474 474 474 474 475 475 475 475 475 475 475 475 475 475 474 0 0 0 0 0
0 0 0 0 479 479 479 479 479 478 478 478 478 478 478 478 478 478 478 478 478 478 478 478 478 478 478 478 478 478 478 478 478 478 478 478 477 477 477 477 477 477 477 477 477 477 477 477 477 477 477 477 477 477 477 477 477 477 477 477 477 477 477 477 477 477 477 477 477 477 477 477 477 476 476 476 476 476 477 477 477 477 477 477 477 477 477 477 477 477 477 477 477 477 477 477 477 476 476 476 476 476 476 476 476 476 476 476 476 476 476 476 476 476 476 476 476 476 476 476 476 476 477 477 477 477 477 477 477 477 477 477 477 476 476 476 476 476 476 476 476 477 477 477 477 477 477 477 476 476 476 476 476 476 476 477 477 477 477 477 477 477 477 477 477 477 477 477 477 477 477 477 477 477 477 477 477 477 477 477 477 477 477 477 477 477 478 478 478 478 478 478 478 478 478 477 477 477 477 477 477 477 477 477 477 476 476 476 476 476 476 476 476 476 476 476 476 476 476 476 476 476 476 476 476 476 476 476 476 477 477 477 477 477 477 478 478 478 478 478 478 478 478 478 477 477 477 477 477 477 477 477 477 477 477 477 477 477 477 476 476 476 476 476 476 476 476 476 476 476 476 476 476 476 476 476 476 477 477 477 477 477 477 477 477 477 477 478 477 477 477 477 477 477 477 476 476 476 476 477 477 477 477 477 477 477 477 477 477 477 477 477 477 477 477 477 477 477 477 477 476 476 476 476 476 476 476 476 476 477 477 477 477 477 478 478 478 478 478 478 478 478 478 478 478 478 478 478 477 477 477 477 477 477 477 477 477 477 477 477 477 477 477 476 476 476 476 476 476 476 476 476 476 476 476 476 476 476 476 477 477 477 477 477 477 477 476 476 476 476 477 477 477 477 477 477 477 477 477 477 477 477 476 476 476 476 476 476 476 476 476 476 476 476 476 476 476 476 476 476 476 476 476 475 475 475 475 475 475 475 475 475 475 476 476 476 476 476 475 475 475 475 475 474 474 474 474 474 474 474 475 475 475 475 475 474 474 474 474 474 474 473 473 474 474 474 474 474 475 475 474 474 474 474 474 0 0 0 0 0
0 0 0 0 479 479 479 478 478 478 478 477 477 477 477 477 478 478 478 477 477 477 477 477 477 477 477 477 477 477 477 477 477 477 477 477 477 477 477 477 477 477 477 477 476 476 476 476 476 476 477 477 477 477 477 477 477 477 477 476 476 476 476 476 477 477 477 477 476 476 476 476 476 476 476 476 476 476 476 476 476 476 476 476 476 476 477 477 477 477 477 477 477 476 476 476 476 476 476 476 476 476 476 476 476 476 476 476 475 475 475 475 475 475 475 475 475 475 475 476 476 476 476 476 476 476 476 476 476 476 476 476 476 476 476 476 476 476 476 476 476 476 476 476 476 476 476 476 476 476 476 476 476 476 476 476 476 476 477 477 477 477 477 477 477 477 476 476 476 476 476 476 476 476 476 476 476 476 476 476 477 477 477 477 477 477 477 477 477 477 477 477 477 477 477 477 477 477 477 477 477 477 477 476 476 476 476 476 476 476 476 476 476 476 476 476 476 476 476 476 476 476 476 476 476 476 476 476 476 476 476 476 477 477 477 477 477 478 478 477 477 477 477 477 477 477 477 477 477 476 476 476 476 476 476 476 476 476 476 476 476 476 476 476 476 475 475 475 475 475 476 476 476 476 476 476 476 476 476 476 476 476 476 477 477 477 477 477 477 477 477 477 477 476 476 476 476 476 476 476 476 476 476 476 476 476 476 476 476 476 476 476 476 477 477 476 476 476 476 476 476 476 476 476 475 475 475 476 476 476 476 477 477 477 477 477 477 477 477 477 477 477 477 477 477 477 477 477 477 477 477 477 477 477 477 477 477 477 477 477 477 476 476 476 476 476 476 476 476 475 475 475 475 475 475 475 476 476 476 476 476 476 477 476 476 476 476 476 476 476 476 476 476 477 477 477 477 477 477 477 476 476 476 476 476 475 475 475 475 475 475 475 475 475 475 476 476 476 476 476 476 475 475 475 475 475 474 474 474 474 475 475 475 475 475 475 475 475 475 475 475 474 474 474 474 474 474 474 474 474 474 474 474 474 474 474 474 473 473 473 473 472 472 473 473 473 474 474 474 474 474 474 474 474 473 0 0 0 0 0
0 0 0 0 479 478 478 478 477 477 477 477 477 477 477 477 477 477 477 477 477 477 477 477 477 477 477 477 477 477 477 477 477 477 477 477 477 477 476 476 476 476 476 476 476 476 476 476 476 476 476 476 476 476 476 476 476 476 476 476 476 476 476 476 476 476 476 476 476 476 476 476 476 476 475 475 476 476 476 476 476 476 476 476 476 476 476 476 476 476 476 476 476 476 476 476 476 475 475 475 475 475 475 475 475 475 475 475 475 475 475 475 475 475 475 475 475 475 475 475 475 475 476 476 476 476 476 476 476 476 476 476 476 476 475 475 475 475 475 475 476 476 476 476 476 476 476 476 476 475 475 475 475 475 475 476 476 476 476 476 476 476 476 476 476 476 476 476 476 476 476 476 476 476 476 476 476 476 476 476 476 476 476 476 476 476 476 476 477 477 477 477 477 477 477 477 477 477 477 476 476 476 476 476 476 476 476 476 476 476 476 475 476 475 475 475 475 475 475 475 475 475 475 475 475 475 475 475 475 476 476 476 476 476 477 477 477 477 477 477 477 477 477 477 477 476 476 476 476 476 476 476 476 476 476 476 476 476 476 476 476 475 475 475 475 475 475 475 475 475 475 475 475 475 476 476 476 476 476 476 476 476 476 476 476 476 477 477 477 477 476 476 476 476 476 476 476 476 476 476 476 476 476 476 476 476 476 476 476 476 476 476 476 476 476 476 476 476 476 476 476 475 475 475 475 475 475 475 475 476 476 476 476 477 477 477 477 477 477 477 477 477 477 477 477 477 477 477 477 476 476 476 476 477 477 477 477 477 476 476 476 476 476 476 476 475 475 475 475 475 475 475 475 475 475 475 475 475 476 476 476 476 476 476 476 476 476 476 476 476 476 476 476 476 476 477 477 477 476 476 476 476 475 475 475 475 475 475 475 475 475 475 475 475 475 475 475 475 475 475 475 475 475 475 474 474 474 474 474 474 474 474 475 475 475 475 475 475 475 475 474 474 474 474 474 473 473 473 473 473 473 474 474 473 473 473 473 472 472 472 472 472 472 472 472 472 473 473 473 474 473 473 473 473 473 0 0 0 0 0
0 0 0 0 478 478 477 477 477 477 477 476 476 476 476 476 477 477 477 477 477 477 477 477 477 477 477 477 477 477 477 476 476 476 476 476 476 476 476 476 476 476 476 476 476 476 476 476 476 476 476 476 476 476 476 476 476 476 476 476 476 476 476 476 476 476 476 476 475 475 475 475 475 475 475 475 475 475 475 475 475 475 475 475 475 476 476 476 476 476 476 476 476 476 475 475 475 475 475 475 475 475 475 475 475 475 475 475 474 474 474 474 474 474 474 474 474 474 474 475 475 475 475 475 475 476 476 476 475 475 475 475 475 475 475 475 475 475 475 475 475 475 475 475 476 476 476 475 475 475 475 475 475 475 475 475 475 475 476 476 476 476 476 476 476 476 476 476 476 476 476 476 476 476 476 476 476 476 476 476 476 476 476 476 476 476 476 476 476 476 476 476 476 476 476 476 476 476 476 476 476 476 476 476 476 476 475 475 475 475 475 475 475 475 475 475 475 475 475 475 475 475 475 475 475 475 475 475 475 475 475 475 476 476 476 476 477 477 477 477 477 476 476 476 476 476 476 475 475 475 475 475 475 475 475 475 475 475 475 475 475 475 475 475 475 475 475 475 475 475 475 475 475 475 475 475 475 475 475 475 475 476 476 476 476 476 476 476 476 476 476 476 476 476 476 476 476 476 476 476 476 476 476 476 476 476 476 476 476 476 476 476 476 476 476 476 476 476 475 475 475 475 475 475 475 475 475 475 475 475 476 476 476 476 476 477 477 477 477 477 477 477 476 476 476 476 476 476 476 476 476 476 476 476 476 476 476 476 476 476 476 476 476 475 475 475 475 475 474 474 474 474 474 474 474 474 474 475 475 475 475 475 476 476 476 475 475 475 475 475 475 476 476 476 476 476 476 476 476 476 475 475 475 475 475 475 475 475 475 475 475 475 475 475 475 475 475 475 475 475 475 475 474 474 474 474 473 473 473 474 474 474 474 474 474 475 475 475 474 474 474 474 473 473 473 473 473 473 473 473 473 473 473 472 472 472 472 472 471 471 471 471 471 471 471 472 472 472 472 473 473 473 473 472 472 0 0 0 0 0
0 0 0 0 477 477 477 477 477 476 476 476 476 476 476 476 476 476 476 476 476 476 476 476 476 476 476 476 476 476 476 476 476 476 476 476 476 475 475 475 475 475 475 475 475 475 475 475 476 476 476 476 476 476 476 475 475 475 475 475 475 475 475 475 475 475 475 475 475 475 475 475 475 474 474 474 474 474 474 474 475 475 475 475 475 475 475 475 475 475 475 475 475 475 475 475 475 474 474 474 474 474 474 474 474 474 474 474 474 474 474 474 474 474 474 474 474 474 474 474 474 474 475 475 475 475 475 475 475 475 475 475 475 475 474 474 474 474 474 474 475 475 475 475 475 475 475 475 475 475 474 474 474 474 474 475 475 475 475 475 475 475 475 475 475 475 475 475 475 475 475 475 475 475 475 475 475 475 475 475 475 475 475 475 475 475 475 475 475 476 476 476 476 476 476 476 476 476 476 476 476 475 475 475 475 475 475 475 475 475 475 475 475 475 475 475 474 474 474 474 474 474 474 474 474 474 474 474 474 474 475 475 475 475 476 476 476 476 476 476 476 476 476 475 475 475 475 475 475 475 475 475 475 475 475 475 475 475 475 475 475 475 475 474 474 474 474 474 474 474 474 474 475 475 475 475 475 475 475 475 475 475 475 475 475 476 476 476 476 476 476 476 476 475 475 475 475 475 475 475 475 475 475 475 475 475 475 475 475 476 476 476 476 476 476 475 475 475 475 475 475 474 474 474 474 474 474 474 475 475 475 475 476 476 476 476 476 476 476 476 476 476 476 476 476 476 476 475 475 475 475 475 476 476 476 476 476 476 476 476 476 475 475 475 475 475 474 474 474 474 474 473 473 473 474 474 474 474 474 475 475 475 475 475 475 475 475 475 475 475 475 475 475 475 475 476 476 476 475 475 475 475 475 474 474 474 474 474 474 474 474 474 474 474 474 474 475 475 475 475 474 474 474 474 473 473 473 473 473 473 473 473 474 474 474 474 474 474 474 474 473 473 473 473 472 472 472 472 472 472 472 472 472 472 471 471 471 471 471 470 470 470 470 470 471 471 471 471 472 472 472 472 472 472 472 0 0 0 0 0
0 0 0 0 477 477 477 476 476 476 476 475 475 475 475 476 476 476 476 476 476 476 476 476 476 476 476 476 476 476 476 475 475 475 475 475 475 475 475 475 475 475 475 475 475 475 475 475 475 475 475 475 475 475 475 475 475 475 475 475 475 475 475 475 475 475 475 475 475 475 475 474 474 474 474 474 474 474 474 474 474 474 474 474 474 475 475 475 475 475 475 475 475 475 474 474 474 474 474 474 473 473 473 473 474 474 474 474 474 474 474 474 473 473 473 473 473 473 474 474 474 474 474 474 474 474 474 474 474 474 474 474 474 474 474 474 474 474 474 474 474 474 474 474 474 475 475 474 474 474 474 474 474 474 474 474 474 474 475 475 475 475 475 475 475 475 475 475 475 475 475 475 475 475 475 475 475 475 475 475 475 475 475 475 475 475 475 475 475 475 475 475 475 475 475 475 475 475 475 475 475 475 475 475 475 475 475 475 474 474 474 474 474 474 474 474 474 474 474 474 474 474 474 474 474 474 474 474 474 474 474 474 474 475 475 475 475 476 476 476 475 475 475 475 475 475 474 474 474 474 474 474 474 474 474 474 474 474 474 474 474 474 474 474 474 474 474 474 474 474 474 474 474 474 474 474 475 475 475 475 475 475 475 475 475 475 475 475 475 475 475 475 475 475 475 475 475 475 475 475 475 475 475 475 475 475 475 475 475 475 475 475 475 475 475 475 475 475 475 474 474 474 474 474 474 474 474 474 474 475 475 475 475 475 476 476 476 476 476 476 476 476 476 476 475 475 475 475 475 475 475 475 475 475 475 476 476 476 476 476 475 475 475 475 474 474 474 474 473 473 473 473 473 473 473 473 473 474 474 474 474 475 475 475 475 475 474 474 474 474 474 475 475 475 475 475 475 475 475 475 475 474 474 474 474 474 474 474 474 474 474 474 474 474 474 474 474 474 474 474 474 474 474 473 473 472 472 472 472 472 472 473 473 473 473 474 473 473 473 473 473 472 472 472 472 472 472 472 472 471 471 471 471 471 471 471 470 470 470 470 470 470 470 470 470 470 471 471 471 471 471 471 471 471 0 0 0 0 0 0
0 0 0 0 476 476 476 476 475 475 475 475 475 475 475 475 475 475 475 475 475 476 476 476 476 476 476 475 475 475 475 475 475 475 474 474 474 474 474 474 474 475 475 475 475 475 475 475 475 475 475 475 475 475 475 475 475 474 474 474 474 474 474 474 475 475 475 474 474 474 474 474 474 473 473 473 473 473 473 473 473 473 474 474 474 474 474 474 474 475 475 475 474 474 474 474 474 473 473 473 473 472 472 473 473 473 473 473 473 473 473 473 473 473 473 473 473 473 473 473 473 473 474 474 474 474 474 474 474 474 474 474 473 473 473 473 473 473 473 473 474 474 474 474 474 474 474 474 474 474 473 473 473 473 473 473 474 474 474 474 474 474 474 474 474 474 474 474 474 474 474 474 474 474 474 474 475 475 475 475 475 475 475 475 474 474 474 474 474 474 475 475 475 475 475 474 474 474 474 474 474 474 474 474 474 474 474 474 474 474 474 474 474 474 474 474 474 474 474 474 474 474 473 473 473 473 473 473 473 473 473 474 474 474 474 475 475 475 475 475 475 475 474 474 474 474 474 473 473 473 473 473 473 473 473 474 474 474 474 474 474 474 474 474 474 474 474 474 474 474 474 474 474 474 474 474 474 474 474 474 474 474 474 475 475 475 475 475 475 475 475 475 475 475 475 475 475 475 475 475 475 475 475 475 475 475 475 475 475 475 475 475 475 475 475 475 474 474 474 474 474 474 473 473 473 473 474 474 474 474 474 475 475 475 475 475 475 475 475 475 475 475 475 475 475 475 475 475 474 474 474 475 475 475 475 475 475 475 475 475 475 475 474 474 474 474 473 473 473 473 472 472 472 472 472 472 473 473 474 474 474 474 474 474 474 474 474 474 474 474 474 474 474 474 474 474 475 474 474 474 474 474 473 473 473 473 473 473 473 473 473 473 473 473 474 474 474 474 474 474 474 473 473 472 472 472 472 472 472 472 472 472 472 472 472 472 472 472 472 472 472 472 472 472 472 471 471 471 471 471 471 471 470 470 470 470 470 470 469 469 469 469 469 469 469 470 470 470 470 471 471 471 471 471 0 0 0 0 0 0
0 0 0 0 476 476 475 475 475 475 474 474 474 474 474 474 475 475 475 475 475 475 475 475 475 475 475 475 475 475 475 474 474 474 474 474 474 474 474 474 474 474 474 474 474 474 475 475 475 475 475 475 475 475 474 474 474 474 474 474 474 474 474 474 474 474 474 474 474 474 473 473 473 473 473 472 472 472 472 472 472 472 473 473 473 473 474 474 474 474 474 474 474 474 474 473 473 473 472 472 472 472 472 472 472 472 472 472 472 472 472 472 472 472 472 472 472 472 472 472 472 473 473 473 473 473 473 473 473 473 473 473 473 472 472 472 472 472 472 473 473 473 473 473 473 473 473 473 473 473 473 472 472 472 473 473 473 473 473 473 473 474 474 474 474 474 474 474 474 474 474 474 474 474 474 474 474 474 474 474 474 474 474 474 474 474 474 474 474 474 474 474 474 474 474 474 474 474 474 473 473 473 473 473 474 474 474 474 474 474 474 473 473 474 474 473 473 473 473 473 473 473 473 472 472 472 472 472 472 472 472 473 473 473 474 474 474 474 474 474 474 474 474 473 473 473 473 472 472 472 472 472 472 472 473 473 473 473 473 473 473 473 474 473 473 473 473 473 473 473 473 473 473 474 474 474 474 474 474 474 474 474 474 474 474 474 474 474 475 475 475 475 474 474 474 474 474 474 474 474 474 474 474 474 474 474 474 474 475 475 475 475 475 475 474 474 474 474 474 474 473 473 473 473 473 473 473 473 474 474 474 474 474 475 475 475 475 475 475 475 475 475 475 475 474 474 474 474 474 474 474 474 474 474 475 475 475 475 475 475 475 474 474 474 474 473 473 472 472 472 472 472 472 472 472 472 472 472 473 473 473 474 474 474 474 474 473 473 473 473 473 473 473 473 474 474 474 474 474 474 473 473 473 473 472 472 473 473 473 473 473 473 473 473 473 473 473 473 473 473 473 472 472 472 471 471 471 471 471 471 471 471 472 472 472 472 472 472 472 472 471 471 471 471 471 471 471 471 470 470 470 470 470 470 469 469 469 469 469 468 468 469 469 469 469 469 469 470 470 470 470 470 470 471 0 0 0 0 0 0
0 0 0 0 475 475 474 474 474 474 474 474 474 474 474 474 474 474 475 475 475 475 475 475 475 475 475 474 474 474 474 474 473 473 473 473 473 473 473 473 473 474 474 474 474 474 474 474 474 474 474 474 474 474 474 474 474 473 473 473 473 473 473 473 473 473 473 473 473 473 473 472 472 472 472 472 472 472 472 472 472 472 472 472 472 472 473 473 473 474 474 474 473 473 473 472 472 472 472 472 471 471 471 471 471 471 471 472 472 472 472 472 472 472 472 472 472 472 472 472 472 472 472 472 472 472 472 472 472 472 472 472 472 472 472 472 472 472 472 472 472 472 472 472 472 472 472 472 472 472 472 472 472 472 472 472 472 472 472 472 473 473 473 473 473 473 473 473 473 473 473 473 473 474 474 474 474 474 474 474 474 474 474 474 473 473 473 473 473 473 473 473 473 473 473 473 473 472 472 472 472 472 472 472 472 473 473 473 473 473 473 473 473 473 473 473 473 473 473 472 472 472 472 472 472 471 471 471 471 472 472 472 472 472 473 473 473 473 473 473 473 473 472 472 472 472 472 472 472 472 472 472 472 472 472 472 472 472 472 473 473 473 473 473 473 473 473 473 473 473 473 473 473 473 473 473 473 473 473 473 473 473 473 473 474 474 474 474 474 474 474 474 474 474 474 474 474 474 474 474 474 474 474 474 474 474 474 474 474 474 474 474 474 474 474 474 474 473 473 473 472 472 472 472 472 472 472 473 473 474 474 474 474 474 474 474 474 474 474 474 474 474 474 474 474 474 473 473 473 473 473 473 474 474 474 474 474 474 475 474 474 474 474 473 473 473 472 472 472 472 472 472 471 471 471 472 472 472 472 472 473 473 473 473 473 473 473 472 472 472 472 472 472 472 472 473 473 473 473 473 473 472 472 472 472 472 472 472 472 472 472 472 472 472 473 473 473 473 473 472 472 472 472 471 471 471 471 471 471 471 471 471 471 471 471 471 471 471 471 471 471 471 471 471 471 471 470 470 470 470 470 469 469 469 469 469 468 468 468 468 468 468 468 468 468 469 469 469 469 470 470 470 470 470 0 0 0 0 0 0
0 0 0 0 474 474 474 474 473 473 473 473 473 473 473 473 474 474 474 474 474 474 474 474 474 474 474 474 474 473 473 472 472 472 472 472 472 472 472 472 473 473 473 473 474 474 474 474 474 474 474 474 474 473 473 473 473 473 472 472 472 472 473 473 473 473 473 472 472 472 472 472 472 472 471 471 471 471 471 471 471 471 471 471 471 472 472 472 472 473 473 473 473 472 472 472 472 471 471 471 471 471 471 471 471 471 471 471 471 471 471 471 471 471 471 471 471 471 471 471 471 472 472 472 472 472 472 472 472 472 472 472 471 471 471 471 471 471 471 471 472 472 472 472 472 472 472 472 471 471 471 471 471 471 471 472 472 472 472 472 472 472 472 472 472 472 472 473 473 473 473 473 473 473 473 473 473 473 473 473 473 473 473 473 473 472 472 472 472 472 472 472 472 472 472 472 472 472 472 472 472 472 472 472 472 472 472 472 472 472 472 472 472 472 472 472 472 472 472 472 472 472 471 471 471 471 471 471 471 471 471 471 471 472 472 472 472 472 472 472 472 472 472 471 471 471 471 471 471 471 471 471 471 471 471 471 472 472 472 472 472 472 472 472 472 472 472 472 473 473 473 473 473 472 472 472 472 472 473 472 472 472 472 473 473 473 473 473 474 474 474 474 474 474 474 474 474 473 473 473 473 473 473 473 473 473 473 474 474 474 474 474 474 474 473 473 473 473 472 472 472 472 472 472 472 472 472 472 473 473 473 474 474 474 474 474 474 474 473 473 473 473 473 473 473 472 472 472 472 472 472 472 473 473 473 474 474 474 474 474 474 473 473 473 472 472 472 472 472 472 471 471 471 471 471 471 472 472 472 472 472 472 472 472 472 472 472 472 472 471 472 472 472 472 472 472 472 472 472 472 472 472 472 472 472 472 472 472 472 472 472 472 472 472 472 472 472 472 472 472 472 471 471 471 471 470 470 470 470 470 470 470 471 471 471 470 470 470 470 470 470 470 470 470 470 470 470 470 470 469 469 469 469 468 468 468 468 468 468 468 468 468 468 468 468 468 468 469 469 469 469 469 469 469 0 0 0 0 0 0
0 0 0 0 473 473 473 472 472 472 472 472 472 472 472 472 473 473 473 473 473 474 474 473 473 473 473 473 473 472 472 472 472 472 471 471 472 472 472 472 472 472 473 473 473 473 473 474 473 473 473 473 473 473 472 472 472 472 472 472 472 472 472 472 472 472 472 472 472 472 472 472 471 471 471 471 471 471 471 471 471 471 471 471 471 471 471 472 472 472 472 472 472 472 472 472 471 471 471 470 470 470 470 470 470 470 470 470 471 471 471 471 471 471 471 471 471 471 471 471 471 471 471 471 471 471 471 471 471 471 471 471 471 471 471 471 471 471 471 471 471 471 471 471 471 471 471 471 471 471 471 471 471 471 471 471 471 471 471 471 471 471 472 472 472 472 472 472 472 472 472 472 472 472 472 472 472 473 473 473 473 472 472 472 472 472 472 472 472 472 472 472 472 471 471 471 471 471 471 471 471 471 471 471 471 471 471 472 472 472 472 472 472 472 472 472 472 472 472 472 471 471 471 471 471 470 470 470 470 470 470 471 471 471 471 471 471 472 471 471 471 471 471 471 471 470 470 470 470 470 471 471 471 471 471 471 471 471 471 471 472 472 472 472 472 472 472 472 472 472 472 472 472 472 472 472 472 472 472 472 472 472 472 472 472 472 473 473 473 473 473 473 473 473 473 473 473 473 473 473 472 472 472 472 472 472 473 473 473 473 473 473 473 473 473 473 472 472 472 472 471 471 471 471 471 471 472 472 472 472 472 473 473 473 473 473 473 472 472 472 472 472 472 472 472 472 472 471 471 471 471 472 472 472 472 473 473 473 473 473 473 473 472 472 472 472 472 472 471 471 471 471 471 471 471 471 471 471 471 472 472 472 472 472 472 472 471 471 471 471 471 471 471 471 471 471 471 471 471 471 471 471 471 471 471 471 471 471 471 471 472 472 472 472 472 472 472 472 472 471 471 471 471 470 470 470 470 470 470 470 470 470 470 470 470 470 470 470 470 470 470 470 470 470 470 470 470 469 469 469 469 468 468 468 468 467 467 467 467 467 467 467 467 467 468 468 468 468 468 469 469 469 469 469 0 0 0 0 0 0
0 0 0 0 472 472 472 472 471 471 471 471 471 471 472 472 472 472 472 472 473 473 473 472 472 472 472 472 472 472 471 471 471 471 471 471 471 471 471 471 472 472 472 472 472 473 473 473 473 473 473 472 472 472 472 472 471 471 471 471 471 471 471 471 471 471 471 471 471 471 471 471 471 471 470 470 470 470 470 470 470 470 470 470 470 470 471 471 471 471 471 471 471 471 471 471 471 471 470 470 470 470 470 470 470 470 470 470 470 470 470 470 470 470 470 470 470 470 470 470 470 471 471 471 471 471 471 471 471 471 470 470 470 470 470 470 471 471 470 470 470 470 470 470 470 470 470 470 470 470 470 470 470 470 470 470 470 470 471 471 471 471 471 471 471 471 471 471 471 471 472 472 472 472 472 472 472 472 472 472 472 472 472 472 471 471 471 471 471 471 471 471 471 471 471 470 470 470 470 470 470 470 470 470 470 471 471 471 471 471 471 471 471 471 471 471 471 471 471 471 471 471 470 470 470 470 470 469 469 470 470 470 470 470 471 471 471 471 471 471 471 470 470 470 470 470 470 470 470 470 470 470 470 470 470 470 470 471 471 471 471 471 471 472 472 472 472 472 472 472 472 472 472 472 472 472 472 471 471 471 472 471 471 472 472 472 472 472 472 472 472 473 473 473 472 472 472 472 472 472 472 472 472 472 472 472 472 472 472 472 472 473 473 472 472 472 472 472 471 471 471 471 471 471 471 471 471 471 472 472 472 472 472 472 472 472 472 472 472 472 472 471 471 471 471 471 471 471 471 471 471 471 471 471 472 472 472 472 472 472 472 472 472 472 472 471 471 471 471 471 471 471 471 471 471 471 471 471 471 471 471 471 471 471 471 471 471 471 470 470 470 470 470 470 470 471 471 471 471 471 471 471 471 471 471 471 471 471 471 471 471 471 471 471 471 471 471 471 471 471 471 470 470 470 470 470 469 469 469 469 469 469 469 469 469 469 469 469 469 469 469 469 469 469 469 469 469 469 469 468 468 468 468 467 467 467 467 467 467 467 467 467 467 467 467 467 468 468 468 468 468 468 468 468 0 0 0 0 0 0
0 0 0 0 471 471 471 471 471 471 471 471 471 471 471 471 471 472 472 472 472 472 472 472 472 472 471 471 471 471 471 470 470 470 470 470 470 470 471 471 471 471 472 472 472 472 472 472 472 472 472 472 472 471 471 471 471 471 471 471 471 471 471 471 471 471 471 471 471 471 471 471 470 470 470 470 470 470 470 469 469 469 470 470 470 470 470 470 470 471 471 471 471 471 471 470 470 470 470 470 470 469 469 469 469 469 469 469 469 470 470 470 470 470 470 470 470 470 470 470 470 470 470 470 470 470 470 470 470 470 470 470 470 470 470 470 470 470 470 470 470 470 470 470 470 470 470 470 470 470 470 470 470 470 470 470 470 470 470 470 470 470 470 470 471 471 471 471 471 471 471 471 471 471 471 471 471 471 471 471 471 471 471 471 471 471 471 471 471 470 470 470 470 470 470 470 469 469 469 469 469 469 470 470 470 470 470 470 470 470 470 470 471 471 471 471 471 471 471 471 470 470 470 470 469 469 469 469 469 469 469 469 469 470 470 470 470 470 470 470 470 470 470 469 469 469 469 469 469 469 469 469 469 470 470 470 470 470 470 470 470 471 471 471 471 471 472 472 472 472 471 471 471 471 471 471 471 471 471 471 471 471 471 471 471 471 471 472 472 472 472 472 472 472 472 472 472 472 471 471 471 471 471 471 471 471 471 471 472 472 472 472 472 472 472 472 471 471 471 471 470 470 470 470 470 470 471 471 471 471 471 471 471 471 471 471 471 471 471 471 471 471 471 470 470 470 470 470 470 470 470 470 470 471 471 471 471 472 472 472 472 472 472 471 471 471 471 471 471 471 471 471 471 471 471 471 471 471 471 471 471 471 471 471 471 470 470 470 470 469 469 470 470 470 470 470 470 470 470 470 470 470 470 470 470 470 470 470 471 471 471 471 471 471 471 471 471 471 471 470 470 470 470 469 469 469 469 469 469 469 469 469 469 469 469 468 468 468 468 468 469 469 469 469 469 469 469 469 468 468 468 468 467 467 467 467 466 466 466 466 466 467 467 467 467 467 467 467 468 468 468 468 468 468 0 0 0 0 0 0
0 0 0 0 471 471 470 470 470 470 470 470 470 470 470 471 471 471 471 471 471 471 471 471 471 471 471 471 470 470 470 470 470 469 469 470 470 470 470 470 471 471 471 472 472 472 472 472 472 472 471 471 471 471 471 470 470 470 470 470 470 470 470 470 470 470 470 470 470 470 470 470 470 470 470 470 469 469 469 469 469 469 469 469 469 469 470 470 470 470 470 470 470 470 470 470 470 470 470 469 469 469 469 469 469 469 469 469 469 469 469 469 469 469 469 469 469 469 469 469 470 470 470 470 470 470 470 470 470 470 469 469 469 469 469 470 470 470 470 470 470 469 469 469 469 469 469 469 469 469 469 469 469 469 469 469 469 469 469 470 470 470 470 470 470 470 470 470 470 470 470 470 470 470 471 471 471 471 471 471 471 471 471 471 470 470 470 470 470 470 470 470 470 470 469 469 469 469 469 469 469 469 469 469 469 469 470 470 470 470 470 470 470 470 470 470 470 470 470 470 470 470 469 469 469 469 469 468 468 468 468 469 469 469 469 469 469 470 470 470 469 469 469 469 469 469 469 469 469 469 469 469 469 469 469 469 469 470 470 470 470 470 470 471 471 471 471 471 471 471 471 471 471 471 471 471 471 471 470 470 470 470 470 471 471 471 471 471 471 471 472 472 472 472 472 471 471 471 471 471 471 471 471 471 470 471 471 471 471 471 471 471 471 471 471 471 471 471 470 470 470 470 470 470 470 470 470 470 471 471 471 471 471 471 471 471 471 470 470 470 470 470 470 470 470 469 469 469 469 469 469 469 470 470 470 471 471 471 471 471 471 471 471 471 471 471 471 471 471 471 471 471 471 470 470 470 470 470 470 470 471 470 470 470 470 470 470 469 469 469 469 469 469 469 469 469 470 470 470 470 470 470 470 470 470 470 470 470 470 470 470 471 471 471 471 471 471 470 470 470 470 469 469 469 469 469 469 468 468 468 468 468 468 468 468 468 468 468 468 468 468 468 468 468 468 468 468 468 468 468 467 467 467 467 466 466 466 466 466 466 466 466 466 467 467 467 467 467 467 467 468 467 467 467 0 0 0 0 0 0
0 0 0 0 470 470 470 470 470 469 469 469 469 470 470 470 470 470 471 471 471 471 471 471 470 470 470 470 470 470 469 469 469 469 469 469 469 469 470 470 470 470 471 471 471 471 471 471 471 471 471 470 470 470 470 470 470 469 469 470 470 470 470 470 470 470 470 470 470 470 470 470 469 469 469 469 469 469 469 469 469 469 469 469 469 469 469 469 469 469 469 469 470 470 470 469 469 469 469 469 469 469 469 468 468 468 468 469 469 469 469 469 469 469 469 469 469 469 469 469 469 469 469 470 470 470 469 469 469 469 469 469 469 469 469 469 469 469 469 469 469 469 469 469 469 469 468 468 468 468 468 468 469 469 469 469 469 469 469 469 469 469 469 469 470 470 470 470 470 470 470 470 470 470 470 470 470 470 470 470 470 470 470 470 470 470 470 470 470 470 469 469 469 469 469 468 468 468 468 468 468 468 468 469 469 469 469 469 469 469 469 469 470 470 470 470 470 470 470 470 470 469 469 469 469 468 468 468 468 468 468 468 468 468 469 469 469 469 469 469 469 469 469 468 468 468 468 468 468 468 468 469 469 469 469 469 469 469 469 469 469 470 470 470 470 471 471 471 471 471 471 471 471 470 470 470 470 470 470 470 470 470 470 470 470 470 470 471 471 471 471 471 471 471 471 471 471 471 470 470 470 470 470 470 470 470 470 470 470 471 471 471 471 471 471 471 470 470 470 470 469 469 469 469 469 469 469 470 470 470 470 470 470 470 470 470 470 470 470 470 469 469 469 469 469 469 469 468 468 468 469 469 469 469 470 470 470 470 471 471 471 471 471 470 470 470 470 470 470 470 470 470 470 470 470 470 470 470 470 470 470 470 470 470 470 469 469 469 469 468 468 468 468 469 469 469 469 469 469 469 469 469 469 469 469 469 470 470 470 470 470 470 470 470 470 470 470 470 470 470 469 469 469 469 468 468 468 468 468 468 468 468 468 468 468 467 467 467 467 467 467 468 468 468 468 468 468 468 468 467 467 467 467 466 466 466 466 466 466 466 466 466 466 466 467 467 467 467 467 467 467 467 467 467 0 0 0 0 0 0
0 0 0 0 469 469 469 469 469 469 469 469 469 469 469 469 470 470 470 470 470 470 470 470 470 470 470 469 469 469 469 469 469 469 469 469 469 469 469 469 470 470 470 471 471 471 471 471 471 470 470 470 470 470 469 469 469 469 469 469 469 469 469 469 469 469 469 469 469 469 469 469 469 469 469 469 469 469 469 469 469 469 469 468 469 469 469 469 469 469 469 469 469 469 469 469 469 469 469 469 468 468 468 468 468 468 468 468 468 468 468 468 468 468 468 468 468 468 468 469 469 469 469 469 469 469 469 469 469 469 469 469 469 469 469 469 469 469 469 469 469 469 468 468 468 468 468 468 468 468 468 468 468 468 468 468 468 468 469 469 469 469 469 469 469 469 469 469 469 469 469 469 469 469 469 470 470 470 470 470 470 470 470 470 470 469 469 469 469 469 469 469 469 468 468 468 468 468 468 468 468 468 468 468 468 468 469 469 469 469 469 469 469 469 469 469 469 469 469 469 469 469 469 468 468 468 468 467 467 467 468 468 468 468 468 468 468 468 468 468 468 468 468 468 468 468 468 468 468 468 468 468 468 468 468 468 469 469 469 469 469 469 469 470 470 470 470 470 470 470 470 470 470 470 470 470 470 470 470 469 469 469 469 470 470 470 470 470 470 470 471 471 471 471 471 470 470 470 470 470 470 469 469 469 469 469 469 469 470 470 470 470 470 470 470 470 470 470 470 469 469 469 469 469 469 469 469 469 469 469 470 470 470 469 469 469 469 469 469 469 469 469 468 468 468 468 468 468 468 468 468 468 469 469 469 469 470 470 470 470 470 470 470 470 470 470 470 470 470 470 470 470 470 470 470 470 470 470 470 470 470 470 470 469 469 469 469 468 468 468 468 468 468 468 468 468 469 469 469 469 469 469 469 469 469 469 469 469 469 470 470 470 470 470 470 470 470 470 469 469 469 469 468 468 468 468 468 468 468 467 467 467 467 467 467 467 467 467 467 467 467 467 467 467 467 468 468 467 467 467 467 466 466 466 466 465 465 465 465 466 466 466 466 466 466 466 467 467 467 467 467 467 467 467 0 0 0 0 0 0
0 0 0 0 469 469 469 468 468 468 468 468 468 469 469 469 469 469 469 469 469 469 469 469 469 469 469 469 469 469 468 468 468 468 468 468 468 469 469 469 469 470 470 470 470 470 470 470 470 470 470 469 469 469 469 468 468 468 468 468 469 469 469 469 469 469 469 469 469 469 469 469 469 469 469 469 469 468 468 468 468 468 468 468 468 468 468 468 468 468 468 468 468 469 469 469 469 469 468 468 468 468 468 468 468 468 468 468 468 468 468 468 468 467 467 468 468 468 468 468 468 468 469 469 469 469 469 469 469 469 468 468 468 468 468 468 468 468 468 468 468 468 468 468 468 467 467 467 467 467 468 468 468 468 468 468 468 468 468 468 468 468 468 468 469 469 469 469 469 469 469 469 469 469 469 469 469 469 469 469 469 469 469 469 469 469 469 469 469 469 468 468 468 468 468 468 467 467 467 467 467 468 468 468 468 468 468 468 468 468 468 468 469 469 469 469 469 469 469 469 469 468 468 468 468 467 467 467 467 467 467 467 467 467 468 468 468 468 468 468 468 468 468 468 468 468 468 468 468 468 468 468 468 468 468 468 468 468 468 468 469 469 469 469 469 470 470 470 470 470 470 470 470 470 470 469 469 469 469 469 469 469 469 469 469 469 470 470 470 470 470 470 470 470 470 470 470 470 470 469 469 469 469 469 469 469 469 469 469 469 470 470 470 470 470 470 469 469 469 469 468 468 468 468 468 468 468 468 469 469 469 469 469 469 469 469 469 469 468 468 468 468 468 468 467 467 467 467 467 467 467 468 468 468 469 469 469 469 470 470 470 470 470 470 469 469 469 469 469 470 470 470 470 470 470 470 470 470 469 469 469 469 469 469 469 469 468 468 468 468 468 468 468 468 468 468 468 468 469 469 469 469 469 469 469 469 469 469 469 469 469 470 470 470 470 470 469 469 469 469 469 468 468 468 468 467 467 467 467 467 467 467 467 467 467 466 466 466 466 466 467 467 467 467 467 467 467 467 467 466 466 466 466 465 465 465 465 465 465 465 465 466 466 466 466 466 466 466 466 466 466 466 466 466 466 0 0 0 0 0
0 0 0 0 468 468 468 468 468 468 468 468 468 468 468 468 469 469 469 469 469 469 469 469 469 469 469 469 468 468 468 468 468 468 468 468 468 468 468 469 469 469 469 470 470 470 470 470 470 469 469 469 468 468 468 468 468 468 468 468 468 468 468 468 469 469 469 469 469 469 469 469 468 468 468 468 468 468 468 468 468 468 468 468 468 468 468 468 467 468 468 468 468 468 468 468 468 468 468 468 468 468 468 467 467 467 467 467 467 467 467 467 467 467 467 467 467 467 467 468 468 468 468 468 468 469 469 468 468 468 468 468 468 468 468 468 468 468 468 468 468 468 468 467 467 467 467 467 467 467 467 467 467 468 468 468 468 468 468 468 468 468 468 468 468 468 468 468 468 468 468 468 468 468 468 468 468 469 469 469 469 469 469 469 469 468 468 468 468 468 468 468 468 468 467 467 467 467 467 467 467 467 467 467 467 468 468 468 468 468 468 468 468 468 468 468 468 468 468 468 468 468 468 467 467 467 467 467 467 467 467 467 467 467 467 467 467 468 468 468 468 468 467 467 467 467 467 467 467 467 467 467 467 468 468 468 468 468 468 468 468 468 469 469 469 469 469 469 469 469 469 469 469 469 469 469 469 469 469 469 469 469 469 469 469 469 469 469 469 469 470 470 470 469 469 469 469 469 469 469 469 468 468 468 468 468 468 468 468 469 469 469 469 469 469 469 469 469 469 468 468 468 468 468 468 468 468 468 468 468 468 468 468 468 468 468 468 468 468 468 468 468 467 467 467 467 467 467 467 467 467 467 467 468 468 468 469 469 469 469 469 469 469 469 469 469 469 469 469 469 469 469 469 469 469 469 469 469 469 469 469 469 469 469 468 468 468 468 467 467 467 467 467 467 468 468 468 468 468 468 468 468 468 468 468 468 468 468 469 469 469 469 469 469 469 469 469 469 469 468 468 468 468 467 467 467 467 467 467 467 467 466 466 466 466 466 466 466 466 466 466 466 466 467 467 467 467 466 466 466 466 466 465 465 465 465 465 465 465 465 465 465 465 466 466 466 466 466 466 466 466 466 466 466 466 0 0 0 0 0
0 0 0 0 468 468 468 468 468 468 468 468 468 468 468 468 468 468 468 468 469 469 469 469 469 468 468 468 468 468 468 468 468 468 468 468 468 468 468 468 469 469 469 469 469 469 469 469 469 469 469 468 468 468 467 467 467 467 467 467 467 468 468 468 468 468 468 468 468 468 468 468 468 468 468 468 468 468 468 468 468 468 468 468 467 467 467 467 467 467 467 467 467 468 468 468 468 468 468 468 467 467 467 467 467 467 467 467 467 467 467 467 467 467 467 467 467 467 467 467 467 467 468 468 468 468 468 468 468 468 468 467 467 467 467 467 467 467 467 467 467 467 467 467 467 466 466 466 466 467 467 467 467 467 467 467 467 467 467 467 467 467 467 467 468 468 468 468 468 468 468 468 468 468 468 468 468 468 468 468 468 468 468 468 468 468 468 468 468 468 468 467 467 467 467 467 467 466 466 467 467 467 467 467 467 467 467 467 467 467 467 467 467 468 468 468 468 468 468 468 467 467 467 467 467 466 466 466 466 466 466 466 466 466 467 467 467 467 467 467 467 467 467 467 467 467 467 467 467 467 467 467 467 467 467 467 467 467 467 467 468 468 468 468 468 468 469 469 469 469 469 469 469 469 469 469 468 468 468 468 468 468 468 468 469 469 469 469 469 469 469 469 469 469 469 469 469 469 469 468 468 468 468 468 468 468 468 468 468 468 468 468 469 469 469 468 468 468 468 468 468 467 467 467 467 467 467 467 467 468 468 468 468 468 468 468 468 468 468 468 467 467 467 467 467 466 466 466 466 466 466 467 467 467 468 468 468 468 469 469 469 469 469 469 469 469 469 469 469 469 469 469 469 469 469 469 469 469 469 469 469 469 468 468 468 468 468 467 467 467 467 467 467 467 467 467 468 468 468 468 468 468 468 468 468 468 468 468 468 468 469 469 469 469 469 469 469 468 468 468 468 468 467 467 467 467 467 466 466 466 466 466 466 466 466 465 465 465 465 466 466 466 466 466 466 466 466 466 466 465 465 465 465 465 464 464 464 464 465 465 465 465 465 465 465 466 466 466 466 466 466 465 465 465 465 0 0 0 0 0
0 0 0 0 467 467 467 467 467 467 467 467 467 467 467 467 468 468 468 468 468 468 468 468 468 468 468 468 468 468 467 467 467 467 467 467 467 468 468 468 468 468 469 469 469 469 469 469 469 468 468 468 467 467 467 467 467 467 467 467 467 467 467 468 468 468 468 468 468 468 468 468 468 468 468 468 468 468 468 468 468 467 467 467 467 467 467 466 466 466 467 467 467 467 467 467 467 467 467 467 467 467 467 467 467 467 467 466 466 466 466 466 466 466 466 466 466 466 466 467 467 467 467 467 468 468 468 468 467 467 467 467 467 467 467 467 467 467 467 467 467 467 467 467 466 466 466 466 466 466 466 466 467 467 467 467 467 467 467 467 467 467 467 467 467 467 467 467 467 467 467 467 467 467 467 467 467 467 467 468 468 468 468 468 468 468 468 467 467 467 467 467 467 467 466 466 466 466 466 466 466 466 466 467 467 467 467 467 467 467 467 467 467 467 467 467 467 467 467 467 467 467 467 467 466 466 466 466 466 466 466 466 466 466 466 466 467 467 467 467 467 467 467 467 467 467 467 466 467 467 467 467 467 467 467 467 467 467 467 467 467 467 467 468 468 468 468 468 468 468 468 468 468 468 468 468 468 468 468 468 468 468 468 468 468 468 468 468 468 468 468 468 468 468 468 468 468 468 468 468 468 468 467 467 467 467 467 467 467 467 468 468 468 468 468 468 468 468 467 467 467 467 467 467 467 467 467 467 467 467 467 467 467 467 467 467 467 467 467 467 467 467 467 466 466 466 466 466 466 466 466 466 467 467 467 467 468 468 468 468 468 468 468 468 468 468 468 468 468 468 468 468 468 468 468 468 468 469 469 468 468 468 468 468 468 467 467 467 467 467 467 467 467 467 467 467 467 467 467 467 467 467 467 467 467 467 467 467 468 468 468 468 468 468 468 468 468 468 468 468 467 467 467 467 466 466 466 466 466 466 466 465 465 465 465 465 465 465 465 465 465 465 466 466 466 466 466 465 465 465 465 465 464 464 464 464 464 464 464 464 465 465 465 465 465 465 465 465 465 465 465 465 465 465 465 0 0 0 0 0
0 0 0 0 467 467 467 467 467 467 467 467 467 467 467 467 467 467 467 467 468 468 468 468 468 468 468 467 467 467 467 467 467 467 467 467 467 467 467 468 468 468 468 468 469 468 468 468 468 468 467 467 467 466 466 466 466 466 466 466 467 467 467 467 467 468 468 468 468 468 468 468 468 467 467 467 467 467 467 467 467 467 467 467 467 466 466 466 466 466 466 466 466 467 467 467 467 467 467 467 467 467 467 467 466 466 466 466 466 466 466 466 466 466 466 466 466 466 466 466 466 467 467 467 467 467 467 467 467 467 467 466 466 466 466 466 466 466 466 466 466 466 466 466 466 466 466 466 466 466 466 466 466 466 466 467 467 467 467 467 467 467 467 467 467 467 467 467 467 467 467 467 467 467 467 467 467 467 467 467 467 467 467 467 467 467 467 467 467 467 467 467 466 466 466 466 466 466 466 466 466 466 466 466 466 466 467 467 466 466 466 466 466 466 466 467 467 467 467 467 467 466 466 466 466 466 465 465 465 465 465 465 465 465 466 466 466 466 466 466 466 466 466 466 466 466 466 466 466 466 466 466 466 466 466 466 466 466 466 467 467 467 467 467 467 467 467 468 468 468 468 468 468 468 468 468 467 467 467 467 467 467 467 468 468 468 468 468 468 468 468 468 468 468 468 468 468 468 468 468 467 467 467 467 467 467 467 467 467 467 467 467 467 467 467 467 467 467 467 467 467 467 466 466 466 466 466 466 466 466 466 466 467 467 467 467 467 467 467 467 467 467 466 466 466 466 466 465 465 466 466 466 466 467 467 467 467 467 468 468 468 468 468 468 468 468 468 468 468 468 468 468 468 468 468 468 468 468 468 468 468 468 468 467 467 467 467 466 466 466 466 466 466 466 467 467 467 467 467 467 467 467 467 467 467 467 467 467 467 467 468 468 468 468 468 468 468 468 467 467 467 467 466 466 466 466 466 466 465 465 465 465 465 465 465 465 465 465 465 465 465 465 465 465 465 465 465 465 465 464 464 464 463 463 463 463 463 463 464 464 464 464 465 465 465 465 465 465 465 465 465 465 465 465 465 0 0 0 0 0
0 0 0 0 466 467 467 467 467 467 467 467 467 467 467 467 467 467 467 467 467 467 467 467 467 467 467 467 467 467 467 467 467 467 467 467 467 467 467 467 468 468 468 468 468 468 468 468 468 467 467 467 466 466 466 466 465 465 466 466 466 466 466 467 467 467 467 467 467 467 467 467 467 467 467 467 467 467 467 467 467 467 467 466 466 466 466 466 466 466 466 466 466 466 466 466 467 467 467 467 466 466 466 466 466 466 466 466 466 466 465 465 465 465 465 465 465 465 465 466 466 466 466 467 467 467 467 467 467 466 466 466 466 466 466 466 466 466 466 466 466 466 466 465 465 465 465 465 465 465 465 466 466 466 466 466 466 466 466 466 466 466 466 466 466 466 466 466 466 466 466 466 466 466 466 466 466 466 466 466 467 467 467 467 467 467 467 467 466 466 466 466 466 466 466 465 465 465 465 465 466 466 466 466 466 466 466 466 466 466 466 466 466 466 466 466 466 466 466 466 466 466 466 466 466 465 465 465 465 465 465 465 465 465 465 465 466 466 466 466 466 466 466 466 466 466 466 466 466 466 466 466 466 466 466 466 466 466 466 466 466 466 466 466 466 467 467 467 467 467 467 467 467 467 467 467 467 467 467 467 467 467 467 467 467 467 467 467 467 467 467 467 467 467 467 467 467 467 467 467 467 467 467 467 466 466 466 466 466 466 467 467 467 467 467 467 467 466 466 466 466 466 466 466 466 466 466 466 466 466 466 466 466 466 466 467 467 467 467 466 466 466 466 466 465 465 465 465 465 465 465 466 466 466 466 467 467 467 467 467 467 467 467 467 467 467 467 467 467 467 467 467 467 467 467 467 467 468 468 468 468 467 467 467 467 467 466 466 466 466 466 466 466 466 466 466 466 467 467 467 466 466 466 466 466 466 466 466 467 467 467 467 467 468 468 467 467 467 467 467 466 466 466 466 466 465 465 465 465 465 465 464 464 464 464 464 464 464 464 464 464 465 465 465 465 465 464 464 464 463 463 463 463 463 463 463 463 463 463 463 463 464 464 464 464 465 465 465 465 465 464 464 464 464 464 0 0 0 0 0
0 0 0 0 466 466 466 466 466 466 466 466 466 466 466 466 466 466 466 467 467 467 467 467 467 467 467 467 467 467 467 466 466 466 467 467 467 467 467 467 467 467 467 467 467 468 467 467 467 467 466 466 466 466 465 465 465 465 465 465 466 466 466 466 467 467 467 467 467 467 467 467 467 467 467 467 467 467 467 467 467 466 466 466 466 465 465 465 465 465 465 465 465 466 466 466 466 466 466 466 466 466 466 466 466 466 466 465 465 465 465 465 465 465 465 465 465 465 465 465 465 466 466 466 466 466 466 466 466 466 466 465 465 465 465 465 465 465 465 465 465 465 465 465 465 465 465 465 465 465 465 465 465 466 466 466 466 466 466 466 466 466 466 466 466 466 466 466 466 466 466 466 466 466 466 466 466 466 466 466 466 466 466 466 466 466 466 466 466 466 466 466 465 465 465 465 465 465 465 465 465 465 465 465 466 466 466 466 466 465 465 465 465 465 465 465 465 466 466 466 466 466 465 465 465 465 465 464 464 464 464 464 464 465 465 465 465 465 465 466 466 466 465 465 465 465 465 465 465 465 465 465 466 466 466 466 466 466 466 466 466 466 466 466 466 466 466 466 466 467 467 467 467 467 467 467 466 466 466 466 466 466 467 467 467 467 467 467 467 467 467 466 466 466 466 467 467 467 467 467 467 466 466 466 466 466 466 466 466 466 466 466 466 466 466 466 466 466 466 466 466 466 465 465 465 465 465 465 465 465 465 465 466 466 466 466 466 466 466 466 466 466 466 465 465 465 465 465 465 465 465 465 466 466 466 466 466 467 467 467 467 467 467 467 467 467 467 467 467 467 466 466 467 467 467 467 467 467 467 467 467 467 467 466 466 466 466 466 465 465 466 466 466 466 466 466 466 466 466 466 466 466 466 466 466 466 466 466 466 466 467 467 467 467 467 467 467 467 466 466 466 466 466 465 465 465 465 465 465 464 464 464 464 464 463 463 463 464 464 464 464 464 464 464 464 464 463 463 463 463 463 463 462 462 462 462 463 463 463 463 463 463 463 463 464 464 464 464 464 464 464 463 463 463 463 0 0 0 0 0
0 0 0 0 466 466 466 466 466 466 466 466 466 466 466 466 466 466 466 466 466 466 466 466 466 467 466 466 466 466 466 466 466 466 466 466 466 466 467 467 467 467 467 467 467 467 467 467 467 466 466 466 465 465 465 465 465 465 465 465 465 465 466 466 466 466 466 466 466 466 466 466 466 466 466 466 466 466 466 466 466 466 466 466 465 465 465 465 465 465 465 465 465 465 465 466 466 466 466 466 466 466 466 466 465 465 465 465 465 465 465 465 464 464 464 464 464 464 464 465 465 465 465 465 466 466 466 466 466 465 465 465 465 465 465 465 465 465 465 465 465 465 465 464 464 464 464 464 464 464 465 465 465 465 466 466 466 466 466 466 465 465 465 465 465 465 465 465 465 465 466 465 465 465 465 465 465 465 465 465 465 466 466 466 466 466 466 466 466 465 465 465 465 465 465 465 465 465 465 465 465 465 465 465 465 465 465 465 465 465 465 465 465 465 465 465 465 465 465 465 465 465 465 465 465 464 464 464 464 464 464 464 464 464 464 465 465 465 465 465 465 465 465 465 465 465 465 465 465 465 465 465 465 465 465 465 465 465 465 465 465 465 465 465 465 466 466 466 466 466 466 466 466 466 466 466 466 466 466 466 466 466 466 466 466 466 466 466 466 466 466 466 466 466 466 466 466 466 466 466 466 466 466 466 466 466 465 465 465 465 466 466 466 466 466 466 466 466 465 465 465 465 465 465 465 465 465 465 465 465 465 465 465 465 466 466 466 466 466 466 466 465 465 465 465 465 464 464 465 465 465 465 465 465 466 466 466 466 466 467 467 467 467 467 466 466 466 466 466 466 466 466 466 466 466 466 466 466 466 466 466 466 466 466 466 466 465 465 465 465 465 465 465 465 466 466 466 466 466 466 465 465 465 465 465 465 465 466 466 466 466 466 466 467 467 467 466 466 466 466 466 465 465 465 465 465 465 464 464 464 463 463 463 463 463 463 463 463 463 463 463 463 463 463 463 463 463 462 462 462 462 462 462 462 462 462 462 462 462 463 463 463 463 463 463 463 463 463 463 463 463 463 463 463 463 0 0 0 0 0
0 0 0 0 465 465 465 465 466 466 466 466 466 466 466 466 466 466 466 466 466 466 466 466 466 466 466 466 466 466 466 466 466 466 466 466 466 466 466 466 466 466 466 466 466 466 466 466 466 466 465 465 465 465 464 464 464 464 464 465 465 465 465 465 466 466 466 466 466 466 466 466 466 466 466 466 466 466 466 466 466 466 465 465 465 465 464 464 464 464 464 464 465 465 465 465 466 466 466 466 466 465 465 465 465 465 465 465 465 465 464 464 464 463 463 463 463 463 464 464 464 465 465 465 465 465 465 465 465 465 465 465 464 464 464 464 464 464 464 464 464 464 464 464 464 463 463 463 464 464 464 464 465 465 465 465 466 466 465 465 465 465 465 465 465 465 465 465 465 465 465 465 465 465 465 465 465 465 465 465 465 465 465 465 465 465 465 465 465 465 465 465 464 464 464 464 464 464 464 464 464 464 465 465 465 465 465 465 465 465 465 464 464 464 464 464 464 464 464 464 464 464 464 464 464 464 464 463 463 463 463 463 463 463 464 464 464 464 464 464 465 465 464 464 464 464 464 465 465 465 465 465 465 465 465 465 465 465 465 465 465 465 465 465 465 465 465 465 465 466 466 466 466 466 466 465 465 465 465 465 465 465 466 466 466 466 466 466 466 466 466 465 465 465 465 465 466 466 466 466 466 466 465 465 465 465 465 465 465 465 465 465 465 465 465 465 465 465 465 465 465 465 465 464 464 464 464 464 464 464 464 465 465 465 465 465 466 466 466 466 465 465 465 465 465 464 464 464 464 464 465 465 465 465 465 465 466 466 466 466 466 466 466 466 466 466 466 466 465 465 465 465 465 465 465 465 466 466 466 466 466 466 466 466 465 465 465 465 465 465 465 465 465 465 465 465 465 465 465 465 465 465 465 465 465 465 465 465 465 466 466 466 466 466 466 466 466 466 466 465 465 465 465 465 465 464 464 464 463 463 463 463 463 462 462 462 462 462 462 462 462 462 462 462 462 462 462 462 461 461 461 461 461 461 461 461 462 462 462 462 462 462 462 462 462 463 463 463 463 463 463 462 462 462 462 0 0 0 0 0
0 0 0 0 465 465 465 465 465 465 465 465 465 465 465 465 465 465 465 465 465 465 466 466 466 466 466 466 466 466 466 466 466 466 466 466 466 466 466 466 466 466 466 466 466 466 466 466 466 465 465 465 465 464 464 464 464 464 464 464 464 465 465 465 465 465 465 465 466 466 466 466 465 466 466 466 466 466 466 466 465 465 465 465 465 464 463 463 463 463 463 464 464 464 465 465 465 465 465 465 465 465 465 465 465 465 465 464 464 464 464 463 463 463 463 463 463 463 463 463 464 464 464 464 465 465 465 465 465 464 464 464 464 464 463 463 463 463 463 463 463 463 463 463 463 463 463 463 463 463 463 464 464 465 465 465 465 465 465 465 465 464 464 464 464 464 464 464 464 465 465 465 464 464 464 464 464 464 464 464 465 465 465 465 465 465 465 464 464 464 464 464 464 464 463 463 463 463 463 464 464 464 464 464 465 465 465 465 464 464 464 464 464 464 464 464 464 464 464 464 464 464 464 464 463 463 463 463 463 463 463 463 463 463 463 463 463 463 464 464 464 464 464 464 464 464 464 464 464 464 464 464 464 464 464 464 464 464 464 464 464 464 464 464 464 465 465 465 465 465 465 465 465 465 465 465 465 465 465 465 465 465 465 465 465 465 465 465 465 465 465 465 465 465 465 465 465 465 465 465 465 465 465 465 465 465 465 465 465 465 465 465 465 465 465 465 465 465 465 465 464 464 464 464 463 463 463 463 463 464 464 464 464 465 465 465 465 465 465 465 465 465 465 464 464 464 464 464 463 464 464 464 465 465 465 465 465 465 465 466 466 466 466 466 465 465 465 465 465 465 465 465 465 465 465 465 465 465 465 465 465 465 465 465 465 465 465 464 464 464 465 465 465 465 465 465 465 465 465 465 465 464 464 464 464 465 465 465 465 465 465 466 466 466 466 466 465 465 465 465 465 465 465 464 464 464 463 463 463 463 462 462 462 462 462 462 462 462 462 462 462 462 462 461 461 461 461 461 461 461 461 460 460 461 461 461 461 461 461 462 462 462 462 462 462 462 462 462 462 462 462 462 462 462 461 0 0 0 0 0
0 0 0 0 464 464 465 465 465 465 465 465 465 465 465 465 465 465 465 465 465 465 465 465 465 465 465 465 465 465 465 465 465 465 465 465 465 465 465 465 465 465 466 465 465 465 465 465 465 465 465 464 464 464 464 463 463 463 463 463 464 464 464 465 465 465 465 465 465 465 465 465 465 465 465 465 465 465 465 465 465 465 465 464 464 463 463 463 463 463 463 463 464 464 464 465 465 465 465 465 465 465 465 465 464 464 464 464 464 463 463 463 463 463 463 463 463 463 463 463 463 463 464 464 464 464 464 464 464 464 463 463 463 463 463 463 463 463 463 463 463 463 463 463 463 463 462 462 463 463 463 463 464 464 464 465 465 465 465 465 464 464 464 464 463 463 463 464 464 464 464 464 464 464 464 464 464 464 464 464 464 464 464 464 464 464 464 464 464 463 463 463 463 463 463 463 463 463 463 463 463 463 464 464 464 464 464 464 464 464 463 463 463 463 463 463 463 463 463 463 463 463 463 463 463 463 463 463 463 462 462 462 462 462 463 463 463 463 463 463 463 463 463 463 463 463 463 463 463 464 464 464 464 464 464 463 463 463 463 463 463 463 463 463 464 464 464 464 464 464 465 465 465 465 465 464 464 464 464 464 464 465 465 465 465 465 465 465 465 465 464 464 464 464 464 464 464 465 465 465 465 465 465 465 465 464 464 464 464 464 464 464 464 464 464 464 464 464 464 464 464 464 463 463 463 463 463 463 463 463 463 463 464 464 464 465 465 465 465 465 465 465 464 464 464 463 463 463 463 463 463 464 464 464 465 465 465 465 465 465 465 465 465 465 465 465 465 464 464 464 464 463 463 463 464 464 464 464 464 465 465 465 465 465 465 464 464 464 464 464 464 464 464 464 464 464 464 464 464 464 464 464 464 464 464 464 464 464 465 465 465 465 465 465 465 465 465 465 465 465 464 464 464 464 463 463 463 463 463 462 462 462 461 461 461 461 461 461 461 461 461 461 461 461 461 460 460 460 460 460 460 460 460 460 460 460 460 461 461 461 461 461 461 461 461 461 461 462 462 461 461 461 461 461 461 0 0 0 0 0
0 0 0 0 463 463 464 464 464 464 464 464 465 465 465 465 465 465 465 465 465 465 465 465 465 465 465 465 465 465 465 465 465 465 465 465 465 465 465 465 465 465 465 465 465 465 465 465 465 464 464 464 463 463 463 463 463 463 463 463 463 463 464 464 464 464 465 465 465 465 465 465 465 465 465 465 465 465 465 465 465 464 464 464 463 463 463 463 462 462 463 463 463 464 464 464 464 465 465 465 465 464 464 464 464 464 463 463 463 463 463 463 462 462 462 462 462 462 462 463 463 463 463 463 463 463 463 463 463 463 463 463 463 463 463 463 463 463 463 463 463 462 462 462 462 462 462 462 462 462 462 463 463 463 464 464 464 464 464 464 463 463 463 463 463 463 463 463 463 463 463 463 463 463 463 463 463 463 463 463 463 463 463 463 463 463 463 463 463 463 463 463 463 463 463 463 463 463 463 463 463 463 463 463 463 463 463 463 463 463 463 463 463 463 463 463 463 463 463 463 463 463 463 462 462 462 462 462 462 462 462 462 462 462 462 462 462 462 463 463 463 463 463 463 463 463 463 463 463 463 463 463 463 463 463 463 463 463 463 463 463 463 463 463 463 463 463 463 464 464 464 464 464 464 464 464 464 463 463 464 464 464 464 464 464 464 464 464 464 464 464 464 463 463 464 464 464 464 464 464 464 464 464 464 464 464 464 464 464 463 463 463 463 463 463 463 463 463 463 463 463 463 463 463 463 462 462 462 463 463 463 463 463 463 464 464 464 464 464 464 464 464 464 463 463 463 463 463 463 463 463 463 463 464 464 464 464 465 465 465 465 465 465 465 464 464 464 463 463 463 463 463 463 463 463 463 463 463 463 464 464 464 464 464 464 464 463 463 463 463 464 464 464 464 464 464 464 464 464 463 463 463 463 463 463 463 463 464 464 464 465 465 465 465 465 465 465 464 464 464 464 463 463 463 463 463 463 462 462 462 461 461 461 461 461 461 460 460 460 460 460 460 460 460 460 460 460 459 459 459 459 459 459 459 460 460 460 460 460 460 460 460 461 461 461 461 461 461 461 461 461 461 461 461 461 0 0 0 0 0
0 0 0 0 463 463 463 463 463 464 464 464 464 464 464 464 464 464 464 464 464 464 464 464 464 464 465 465 465 465 465 464 464 464 464 464 464 464 464 464 464 464 464 464 464 464 464 464 464 464 463 463 463 463 463 463 463 463 463 463 463 463 463 463 464 464 464 464 464 464 464 464 464 464 464 464 464 464 464 464 464 464 463 463 463 463 462 462 462 462 462 462 463 463 463 464 464 464 464 464 464 464 464 463 463 463 463 463 463 463 462 462 462 462 462 462 462 462 462 462 463 463 463 463 463 463 463 463 463 463 463 463 462 462 462 462 462 462 462 462 462 462 462 462 462 462 462 461 462 462 462 462 462 463 463 463 463 463 463 463 463 463 462 462 462 462 462 462 462 463 463 463 463 463 463 463 463 463 463 463 463 463 463 463 463 463 463 463 462 462 462 462 462 462 462 462 462 462 462 462 463 463 463 463 463 463 463 463 463 463 463 463 462 462 462 462 462 462 462 462 462 462 462 462 462 462 462 462 462 462 462 462 462 462 462 462 462 462 462 462 462 462 462 462 462 462 462 462 463 463 463 463 463 463 463 463 462 462 462 462 462 462 462 462 463 463 463 463 463 463 463 463 463 463 463 463 463 463 463 463 463 463 463 463 464 464 464 464 463 463 463 463 463 463 463 463 463 463 463 463 463 464 464 463 463 463 463 463 463 463 463 463 463 463 463 463 463 463 463 463 463 463 462 462 462 462 462 462 462 462 462 462 463 463 463 463 463 464 464 464 463 463 463 463 463 463 463 463 463 463 463 463 463 463 463 464 464 464 464 464 464 464 464 464 463 463 463 463 463 462 462 462 462 462 462 462 462 462 463 463 463 463 463 463 463 463 463 463 463 463 463 463 463 463 463 463 463 463 463 463 463 463 463 463 463 463 463 463 463 464 464 464 464 464 464 464 464 463 463 463 463 463 463 463 462 462 462 462 461 461 461 461 460 460 460 460 460 460 460 460 460 459 459 459 459 459 459 459 459 459 459 459 459 459 459 459 459 459 459 460 460 460 460 460 460 460 460 460 460 460 460 460 460 460 460 0 0 0 0 0
0 0 0 0 462 462 462 463 463 463 463 463 463 463 463 463 463 463 463 463 463 463 463 463 464 464 464 464 464 464 464 464 464 464 463 463 463 463 463 463 463 463 463 463 463 463 463 463 463 463 463 463 463 463 463 462 462 462 462 462 463 463 463 463 463 463 463 463 463 463 463 463 463 463 463 463 463 463 463 463 463 463 463 463 462 462 462 462 462 462 462 462 462 463 463 463 463 463 464 464 463 463 463 463 463 463 463 462 462 462 462 462 461 461 461 461 462 462 462 462 462 462 462 463 463 463 463 462 462 462 462 462 462 462 462 462 462 462 462 462 462 462 461 461 461 461 461 461 461 461 461 461 462 462 462 462 463 463 463 462 462 462 462 462 461 461 461 462 462 462 462 462 462 462 462 462 462 462 462 462 462 462 462 462 462 462 462 462 462 462 462 462 462 462 462 462 462 462 462 462 462 462 462 462 463 463 463 462 462 462 462 462 462 462 462 462 462 462 462 462 462 462 462 461 461 461 461 461 461 461 461 461 461 461 461 461 462 462 462 462 462 462 462 462 462 462 462 462 462 462 462 462 462 462 462 462 462 462 462 462 462 462 462 462 462 462 462 462 462 463 463 463 463 463 462 462 462 462 462 462 462 462 463 463 463 463 463 463 463 463 463 463 462 462 462 462 463 463 463 463 463 463 463 463 463 463 463 463 463 463 463 463 462 462 462 462 462 462 462 462 462 462 462 462 462 461 461 461 461 462 462 462 462 462 462 463 463 463 463 463 463 463 463 463 462 462 462 462 462 462 462 462 463 463 463 463 463 463 463 463 463 463 463 463 463 462 462 462 462 462 461 461 461 461 461 461 462 462 462 462 462 463 463 463 463 463 463 463 463 463 463 463 463 463 463 463 463 463 463 462 462 462 462 462 462 463 463 463 463 463 463 464 464 464 463 463 463 463 463 463 462 462 462 462 462 462 462 461 461 461 460 460 460 460 459 459 459 459 459 459 459 459 459 459 459 458 458 458 458 458 458 458 458 458 458 458 459 459 459 459 459 459 459 459 459 459 459 460 460 460 460 460 460 459 0 0 0 0 0 0
0 0 0 0 461 461 462 462 462 462 463 463 463 463 463 463 463 463 463 463 463 463 463 463 463 463 463 463 463 463 463 463 463 463 463 463 462 462 462 462 462 462 463 463 463 463 463 463 463 463 463 462 462 462 462 462 462 462 462 462 462 462 462 462 462 462 463 463 463 463 463 463 463 463 463 463 463 463 463 463 462 462 462 462 462 462 461 461 461 461 461 461 462 462 462 463 463 463 463 463 463 463 463 462 462 462 462 462 462 462 461 461 461 461 461 461 461 461 462 462 462 462 462 462 462 462 462 462 462 462 462 462 462 462 462 461 461 461 461 461 461 461 461 461 461 461 460 460 460 460 461 461 461 461 462 462 462 462 462 462 461 461 461 461 461 461 461 461 461 461 461 461 461 461 462 462 462 462 462 462 462 462 462 462 462 462 461 461 461 461 461 461 461 461 461 461 462 462 462 462 462 462 462 462 462 462 462 462 462 462 462 461 461 461 461 461 461 461 461 461 461 461 461 461 461 461 461 461 461 461 461 461 461 461 461 461 461 461 461 461 461 461 461 461 461 461 461 461 461 462 462 462 462 462 462 462 461 461 461 461 461 461 461 461 462 462 462 462 462 462 462 462 462 462 462 462 462 461 461 461 462 462 462 462 462 462 462 462 462 462 462 462 462 462 462 462 462 462 462 462 462 462 462 462 462 462 462 462 462 462 462 462 462 462 462 462 462 462 462 462 462 462 462 461 461 461 461 461 461 461 461 461 461 462 462 462 462 462 462 462 462 462 462 462 462 462 462 462 462 462 462 462 462 462 462 463 463 463 463 463 463 463 462 462 462 462 461 461 461 461 461 461 461 461 461 461 461 461 461 461 462 462 462 462 462 462 462 462 462 462 462 462 462 462 462 462 462 462 462 462 462 462 462 462 462 462 462 463 463 463 463 463 463 463 463 463 462 462 462 462 462 462 462 462 462 461 461 461 461 460 460 459 459 459 459 459 458 458 458 458 458 458 458 458 458 458 458 458 458 458 458 458 457 458 458 458 458 458 458 458 458 459 459 459 459 459 459 459 459 459 459 459 459 459 0 0 0 0 0 0
