0 0 0 0 613 613 613 613 613 612 612 612 612 613 613 613 613 613 613 614 614 614 614 614 615 614 614 614 614 613 613 613 614 614 614 614 615 615 615 615 614 614 614 614 613 613 613 613 613 613 613 613 613 613 613 613 613 613 613 613 613 613 613 613 613 613 613 613 613 613 613 613 613 613 613 613 613 613 613 614 614 614 614 614 614 613 613 613 613 613 613 613 613 614 614 614 614 614 615 615 615 615 615 615 615 615 614 614 614 613 613 613 613 613 613 613 613 0 0 0 0 0 0 0 0 0 0 0 0 0 492 0 0 0 0 0 0 0 0 0 0 0 0 0 0 0 0 0 0 0 0 0 0 0 0 0 0 0 0 0 0 0 0 0 0 0 0 0 0 0 0 0 0 0 0 0 0 0 0 0 0 0 0 0 0 0 0 0 0 0 0 0 0 0 0 0 0 0 0 0 0 0 0 0 0 0 0 0 0 0 0 0 0 0 0 0 0 0 0 0 0 0 0 0 0 0 0 0 0 0 0 0 0 0 0 0 0 0 0 0 0 0 0 0 0 0 0 0 0 0 0 0 0 0 0 0 0 0 0 0 0 0 0 0 0 0 0 502 501 499 498 0 0 0 0 0 0 0 0 0 0 0 0 0 0 0 0 0 0 0 0 0 0 0 0 0 0 0 0 0 0 0 0 0 0 0 0 0 0 0 0 0 0 0 0 0 610 611 612 612 612 612 613 613 613 614 614 615 615 615 615 615 615 615 615 614 613 613 613 612 612 611 611 610 610 610 610 610 610 610 610 610 610 610 610 609 609 609 609 609 610 610 610 611 611 611 611 611 611 611 611 610 610 610 610 610 610 611 611 611 611 610 610 610 610 610 609 609 609 608 608 607 607 607 607 607 608 608 609 609 609 609 609 609 610 610 610 610 610 610 610 610 610 610 610 610 610 610 610 609 609 609 609 609 608 608 607 607 607 607 607 606 606 606 606 607 607 607 607 607 606 606 606 606 0 0 0 0 0 0 0 0 0 0 0 0 0 0 0 0 0 0 0 0 0 0 0 0 0 0 0 0 0 0 0 0 0 0 0 0
0 0 0 0 612 612 612 612 612 612 612 612 612 612 612 612 612 612 613 613 613 613 613 613 613 613 613 613 613 613 613 613 613 613 613 613 613 613 613 613 613 613 613 613 613 613 613 613 612 612 613 613 613 613 613 613 613 613 613 612 612 612 612 612 612 612 612 612 612 612 612 612 612 612 612 612 612 612 613 613 613 613 613 613 613 613 613 612 612 613 613 613 613 613 613 613 613 613 613 613 613 613 613 613 613 613 613 613 613 613 612 612 612 612 613 613 0 0 0 0 0 0 0 0 0 0 0 0 0 0 491 0 0 0 0 0 0 0 0 0 0 0 0 0 0 0 0 0 0 0 0 0 0 0 0 0 0 0 0 0 0 0 0 0 0 0 0 0 0 0 0 0 0 0 0 0 0 0 0 0 0 0 0 0 0 0 0 0 0 0 0 0 0 0 0 0 0 0 0 0 0 0 0 0 0 0 0 0 0 0 0 0 0 0 0 0 0 0 0 0 0 0 0 0 0 0 0 0 0 0 0 0 0 0 0 0 0 0 0 0 0 0 0 0 0 0 0 0 0 0 0 0 0 0 0 0 0 0 0 0 0 0 0 0 0 0 0 0 498 497 496 0 0 0 0 0 0 0 0 0 0 0 0 0 0 0 0 0 0 0 0 0 0 0 0 0 0 0 0 0 0 0 0 0 0 0 0 0 0 0 0 0 0 0 0 0 610 610 610 611 612 612 612 612 613 613 613 614 614 614 614 615 614 614 613 613 613 612 612 612 611 610 610 610 609 609 609 609 609 609 609 609 609 609 609 609 609 609 609 609 609 609 610 610 610 610 610 610 610 610 610 610 610 610 610 610 610 610 610 610 610 610 610 609 609 609 609 608 607 607 607 607 606 606 606 606 607 607 607 607 608 608 608 608 609 609 609 609 609 609 609 609 609 609 609 609 609 609 609 609 609 609 608 608 607 607 607 606 606 606 606 606 606 606 606 606 606 606 606 606 606 606 606 606 606 0 0 0 0 0 0 0 0 0 0 0 0 0 0 0 0 0 0 0 0 0 0 0 0 0 0 0 0 0 0 0 0 0 0 0
0 0 0 0 612 611 611 611 611 611 611 610 610 611 611 611 611 611 612 612 612 612 612 612 612 612 612 612 612 612 612 612 612 612 612 612 613 613 613 613 613 613 612 612 612 612 612 612 612 612 612 612 612 612 612 612 612 612 612 612 611 611 611 611 611 611 612 612 612 612 612 612 612 612 612 612 612 612 612 612 612 612 612 612 612 612 612 612 612 612 612 612 612 612 612 612 612 612 612 613 613 613 613 613 613 612 612 612 612 612 612 612 612 612 612 612 0 0 0 0 0 0 0 0 0 0 0 0 0 0 0 0 0 0 0 0 0 0 0 0 0 0 0 0 0 0 0 0 0 0 0 0 0 0 0 0 0 0 0 0 0 0 0 0 0 0 0 0 0 0 0 0 0 0 0 0 0 0 0 0 0 0 0 0 0 0 0 0 0 0 0 0 0 0 0 0 0 0 0 0 0 0 0 0 0 0 0 0 0 0 0 0 0 0 0 0 0 0 0 0 0 0 0 0 0 0 0 0 0 0 0 0 0 0 0 0 0 0 0 0 0 0 0 0 0 0 0 0 0 0 0 0 0 0 0 0 0 0 0 0 0 0 0 0 0 0 0 0 0 0 0 0 0 0 0 0 0 0 0 0 0 0 0 0 0 0 0 0 0 0 0 0 0 0 0 0 0 0 0 0 0 0 0 0 0 0 0 0 0 0 0 0 0 0 0 0 609 609 610 610 610 611 611 612 612 612 613 613 613 613 613 613 613 613 613 612 612 612 612 611 610 610 609 609 609 608 608 608 608 609 609 609 609 609 608 608 608 608 608 608 609 609 609 610 610 610 610 610 610 609 609 609 609 609 609 609 609 609 609 609 609 609 609 609 609 608 607 607 607 606 606 606 606 606 606 606 606 606 606 606 607 607 607 607 607 608 608 609 609 609 609 609 609 609 609 609 609 609 608 608 608 608 607 607 606 606 606 606 606 605 605 605 605 605 605 605 605 605 605 606 605 605 605 605 605 0 0 0 0 0 0 0 0 0 0 0 0 0 0 0 0 0 0 0 0 0 0 0 0 0 0 0 0 0 0 0 0 0 0 0
0 0 0 0 610 610 610 610 610 610 610 610 610 610 610 610 610 610 610 611 611 612 612 612 612 612 611 611 611 611 610 610 610 611 611 612 612 612 612 612 612 612 612 612 612 611 611 611 611 611 611 611 611 611 611 611 611 610 610 610 610 610 610 610 610 610 610 611 611 611 611 611 611 611 610 610 610 610 611 611 611 611 611 611 611 610 610 610 610 610 610 610 611 611 611 612 612 612 612 612 612 612 612 612 612 612 612 612 612 611 611 611 611 611 611 612 0 0 0 0 0 0 0 0 0 0 0 0 0 0 0 0 0 0 0 0 0 0 0 0 0 0 0 0 0 0 0 0 0 0 0 0 0 0 0 0 0 0 0 0 0 0 0 0 0 0 0 0 0 0 0 0 0 0 0 0 0 0 0 0 0 0 0 0 0 0 0 0 0 0 0 0 0 0 0 0 0 0 0 0 0 0 0 0 0 0 0 0 0 0 0 0 0 0 0 0 0 0 0 0 0 0 0 0 0 0 0 0 0 0 0 0 0 0 0 0 0 0 0 0 0 0 0 0 0 0 0 0 0 0 0 0 0 0 0 0 0 0 0 0 0 0 0 0 0 0 0 491 491 491 490 0 0 0 0 0 0 0 0 0 0 0 0 0 0 0 0 0 0 0 0 0 0 0 0 0 0 0 0 0 0 0 0 0 0 0 0 0 0 0 0 0 0 0 0 0 609 609 609 609 610 610 610 610 611 612 612 612 612 613 613 613 613 612 612 612 611 611 610 610 609 609 609 608 607 607 607 607 607 607 608 608 608 608 607 607 607 607 607 607 608 608 609 609 609 609 609 609 609 609 608 608 608 607 607 607 608 608 608 608 609 608 608 608 607 607 607 606 606 606 605 605 605 605 605 605 605 605 605 606 606 606 606 607 607 607 607 607 608 608 608 608 608 608 608 608 608 608 608 607 607 607 606 606 606 606 606 605 605 605 605 605 604 604 604 604 605 605 605 605 605 605 605 605 604 0 0 0 0 0 0 0 0 0 0 0 0 0 0 0 0 0 0 0 0 0 0 0 0 0 0 0 0 0 0 0 0 0 0 0
0 0 0 0 609 609 609 609 609 609 609 609 609 609 609 609 609 609 610 610 610 610 610 610 610 610 610 610 610 610 609 609 610 610 610 610 610 611 611 611 611 611 611 611 610 610 610 610 610 610 610 610 610 610 610 610 610 610 609 609 609 609 609 609 609 610 610 610 610 610 610 610 610 610 610 610 610 610 610 610 610 610 610 610 610 610 609 609 609 609 610 610 610 610 610 610 610 610 611 611 611 611 611 611 611 611 611 610 610 610 610 610 610 610 610 610 0 0 0 0 0 0 0 0 0 0 0 0 0 0 0 0 0 0 0 0 0 0 0 0 0 0 0 0 0 0 0 0 0 0 0 0 0 0 0 0 0 0 0 0 0 0 0 0 0 0 0 0 0 0 0 0 0 0 0 0 0 0 0 0 0 0 0 0 0 0 0 0 0 0 0 0 0 0 0 0 0 0 0 0 0 0 0 0 0 0 0 0 0 0 0 0 0 0 0 0 0 0 0 0 0 0 0 0 0 0 0 0 0 0 0 0 0 0 0 0 0 0 0 0 0 0 0 0 0 0 0 0 0 0 0 0 0 0 0 0 0 0 0 0 0 0 0 0 0 0 0 489 489 489 489 0 0 0 0 0 0 0 0 0 0 0 0 0 0 0 0 0 0 0 0 0 0 0 0 0 0 0 0 0 0 0 0 0 0 0 0 0 0 0 0 0 0 0 0 0 608 608 608 609 609 609 609 610 610 610 611 612 612 612 612 612 612 612 611 611 610 610 610 609 609 608 607 607 607 607 607 607 607 607 607 607 607 607 607 607 607 607 607 607 607 607 608 609 609 609 609 608 608 607 607 607 607 607 607 607 607 607 607 607 607 607 607 607 607 606 606 606 605 605 605 604 604 604 604 604 604 605 605 605 605 605 606 606 606 606 607 607 607 607 607 607 607 607 607 607 607 607 607 607 606 606 606 606 605 605 605 605 604 604 604 603 603 603 603 603 603 604 604 604 604 604 604 604 604 0 0 0 0 0 0 0 0 0 0 0 0 0 0 0 0 0 0 0 0 0 0 0 0 0 0 0 0 0 0 0 0 0 0 0
0 0 0 0 609 609 609 609 609 609 609 609 609 609 609 609 609 609 609 609 609 609 609 609 609 609 609 609 609 609 609 609 609 609 609 609 609 610 610 610 610 610 610 610 610 610 609 609 609 609 609 609 609 609 609 609 609 609 609 609 608 608 609 609 609 609 609 609 610 610 610 610 610 609 609 609 609 609 609 609 609 609 609 609 609 609 609 609 609 609 609 609 609 609 609 609 609 609 610 610 610 610 610 610 610 610 610 610 609 609 609 609 609 609 609 0 0 0 0 0 0 0 0 0 0 0 0 0 0 0 0 0 0 0 0 0 0 0 0 0 0 0 0 0 0 0 0 0 0 0 0 0 0 0 0 0 0 0 0 0 0 0 0 0 0 0 0 0 0 0 0 0 0 0 0 0 0 0 0 0 0 0 0 0 0 0 0 0 0 0 0 0 0 0 0 0 0 0 0 0 0 0 0 0 0 0 0 0 0 0 0 0 0 0 0 0 0 0 0 0 0 0 0 0 0 0 0 0 0 0 0 0 0 0 0 0 0 0 0 0 0 0 0 0 0 0 0 0 0 0 0 0 0 0 0 0 0 0 0 0 0 0 0 0 0 0 485 486 486 486 487 0 0 0 0 0 0 0 0 0 0 0 0 0 0 0 0 0 0 0 0 0 0 0 0 0 0 0 0 0 0 0 0 0 0 0 0 0 0 0 0 0 0 0 0 0 607 607 607 608 608 609 609 609 609 610 610 610 610 611 611 611 611 610 610 610 610 609 609 608 607 607 607 606 606 606 606 606 606 606 606 606 606 607 606 606 606 606 606 607 607 607 607 608 608 608 608 607 607 607 606 606 606 606 606 606 606 606 606 606 606 606 606 606 606 606 605 605 605 604 604 603 603 603 603 603 603 603 603 604 604 605 605 605 605 606 606 606 606 606 606 606 606 606 606 606 606 606 606 606 606 606 605 605 605 605 604 604 603 603 603 603 603 603 603 603 603 603 603 603 603 603 603 603 603 603 0 0 0 0 0 0 0 0 0 0 0 0 0 0 0 0 0 0 0 0 0 0 0 0 0 0 0 0 0 0 0 0 0 0
0 0 0 0 607 608 608 608 608 608 608 607 607 607 607 607 607 607 607 608 608 608 608 608 608 608 608 608 607 607 607 607 607 608 608 608 609 609 609 609 609 609 609 609 609 609 609 608 608 608 608 608 608 608 608 608 608 607 607 607 607 607 607 607 607 608 608 609 609 609 609 609 609 609 609 608 608 608 608 608 608 608 608 608 608 607 607 607 607 607 607 608 608 608 608 608 609 609 609 609 609 609 609 609 609 609 609 609 609 609 608 608 608 608 608 0 0 0 0 0 0 0 0 0 0 0 0 0 0 0 0 0 0 0 0 0 0 0 0 0 0 0 0 0 0 0 0 0 0 0 0 0 0 0 0 0 0 0 0 0 0 0 0 0 0 0 0 0 0 0 0 0 0 0 0 0 0 0 0 0 0 0 0 0 0 0 0 0 0 0 0 0 0 0 0 0 0 0 0 0 0 0 0 0 0 0 0 0 0 0 0 0 0 0 0 0 0 0 0 0 0 0 0 0 0 0 0 0 0 0 0 0 0 0 0 0 0 0 0 0 0 0 0 0 0 0 0 0 0 0 0 0 0 0 0 0 0 0 0 0 0 0 0 0 0 0 483 483 484 484 485 0 0 0 0 0 0 0 0 0 0 0 0 0 0 0 0 0 0 0 0 0 0 0 0 0 0 0 0 0 0 0 0 0 0 0 0 0 0 0 0 0 0 0 0 0 606 606 607 607 607 607 608 608 609 609 609 610 610 610 610 610 610 610 609 609 609 608 607 607 607 606 606 606 605 605 605 605 605 605 606 606 606 606 606 606 606 606 606 606 606 607 607 607 607 607 607 607 606 606 606 606 605 605 605 605 606 606 606 606 606 606 605 605 605 605 604 604 603 603 603 603 602 602 602 603 603 603 603 603 603 603 604 605 605 605 605 606 606 606 606 606 606 606 606 606 606 606 605 605 605 605 605 604 604 603 603 603 603 602 602 602 602 602 602 602 602 603 603 603 603 603 603 603 603 602 0 0 0 0 0 0 0 0 0 0 0 0 0 0 0 0 0 0 0 0 0 0 0 0 0 0 0 0 0 0 0 0 0 0
0 0 0 0 607 607 607 607 607 607 607 607 607 606 606 606 606 606 606 607 607 607 607 607 607 607 607 607 606 606 606 606 606 607 607 607 607 607 608 608 608 608 608 608 608 608 607 607 607 607 607 607 607 607 607 607 607 607 607 606 606 606 606 606 607 607 607 607 608 608 608 608 608 607 607 607 607 607 607 607 607 607 607 607 607 607 607 607 607 607 607 607 607 607 607 607 607 607 607 607 608 608 608 608 607 607 607 607 607 607 607 607 607 607 607 0 0 0 0 0 0 0 0 0 0 0 0 487 0 0 0 0 0 0 0 0 0 0 0 0 0 0 0 0 0 0 0 0 0 0 0 0 0 0 0 0 0 0 0 0 0 0 0 0 0 0 0 0 0 0 0 0 0 0 0 0 0 0 0 0 0 0 0 0 0 0 0 0 0 0 0 0 0 0 0 0 0 0 0 0 0 0 0 0 0 0 0 0 0 0 0 0 0 0 0 0 0 0 0 0 0 0 0 0 0 0 0 0 0 0 0 484 484 485 0 0 0 0 0 0 0 0 0 0 0 0 0 0 0 0 0 0 0 0 0 0 0 0 0 0 0 0 0 0 0 482 483 483 483 484 484 484 0 0 0 0 0 0 0 0 0 0 0 0 0 0 0 0 0 0 0 0 0 0 0 0 0 0 0 0 0 0 0 0 0 0 0 0 0 0 0 0 0 0 0 0 606 606 606 606 607 607 607 607 607 608 608 609 609 609 609 609 609 609 608 607 607 607 607 606 606 605 605 605 605 605 605 605 605 605 605 605 605 606 606 606 606 606 606 606 606 606 606 606 606 606 606 606 606 605 605 605 605 605 605 605 605 605 605 605 605 605 605 605 604 604 603 603 603 603 602 602 602 602 602 602 602 602 602 602 602 603 603 603 604 604 605 605 605 605 605 605 605 605 605 605 605 605 605 604 604 604 603 603 603 603 602 602 602 602 602 602 601 601 601 602 602 602 602 602 602 602 602 602 602 602 0 0 0 0 0 0 0 0 0 0 0 0 0 0 0 0 0 0 0 0 0 0 0 0 0 0 0 0 0 0 0 0 0 0
0 0 0 0 606 606 606 606 606 606 606 606 606 606 605 605 605 605 606 606 606 606 606 606 606 606 606 605 605 605 605 605 605 606 606 606 606 607 607 607 607 607 607 607 607 607 607 607 607 606 606 606 606 606 606 606 606 606 606 605 605 605 605 605 606 606 607 607 607 607 607 607 607 607 607 606 606 606 606 606 606 606 606 606 606 606 606 606 606 606 606 606 606 606 606 607 607 607 607 607 607 607 607 607 607 607 607 607 606 606 606 606 606 606 606 0 0 0 0 0 0 0 0 0 0 0 0 487 0 0 0 0 0 0 0 0 0 0 0 0 0 0 0 0 0 0 0 0 0 0 0 0 0 0 0 0 0 0 0 0 0 0 0 0 0 0 0 0 0 0 0 0 0 0 0 0 0 0 0 0 0 0 0 0 0 0 0 0 0 0 0 0 0 0 0 0 0 0 0 0 0 0 0 0 483 483 483 482 483 483 483 483 0 0 0 0 0 0 0 0 0 0 0 0 0 0 0 0 0 0 484 484 484 484 484 485 484 484 484 0 0 0 0 0 0 0 0 0 0 0 0 0 0 0 0 0 0 0 0 0 0 0 0 0 481 481 482 482 483 483 483 483 0 0 0 0 0 0 0 0 0 0 0 0 0 0 0 0 0 0 0 0 0 0 0 0 0 0 0 0 0 0 0 0 0 0 0 0 0 0 0 0 0 0 0 0 605 605 606 606 606 606 606 606 607 607 607 607 607 607 607 607 607 607 607 607 606 606 605 605 605 605 604 604 604 603 604 604 604 604 604 605 605 605 605 605 605 605 605 605 605 606 606 606 606 605 605 605 605 605 604 604 604 603 603 603 603 603 603 603 603 603 603 603 603 603 603 602 602 602 602 602 601 601 601 601 601 601 601 602 602 602 602 602 603 603 603 603 604 604 605 605 604 604 604 604 604 603 603 603 603 603 603 602 602 602 602 602 601 601 601 601 601 601 601 601 601 601 601 602 602 602 602 602 601 600 600 0 0 0 0 0 0 0 0 0 0 0 0 0 0 0 0 0 0 0 0 0 0 0 0 0 0 0 0 0 0 0 0 0
0 0 0 0 605 605 606 606 606 606 605 605 605 605 605 604 604 605 605 605 605 605 605 605 605 605 605 605 605 605 605 605 605 605 605 605 605 606 606 606 606 606 606 606 606 606 606 606 606 606 606 606 606 606 605 605 605 605 605 605 605 604 605 605 605 605 606 606 606 606 606 606 606 606 606 606 606 606 605 605 605 605 605 605 605 605 605 605 605 605 605 605 605 606 606 606 606 606 606 606 606 606 606 606 606 606 606 606 605 605 605 605 605 605 605 0 0 0 0 0 0 0 0 0 0 0 485 486 0 0 0 0 0 0 0 0 0 0 0 0 0 0 0 0 0 0 0 0 0 0 0 0 0 0 0 0 0 0 0 0 0 0 0 0 0 0 0 0 0 0 0 0 0 0 0 0 0 0 0 0 0 0 0 0 0 0 0 0 0 0 0 0 0 0 0 0 0 0 0 0 0 483 482 482 482 482 482 482 482 482 482 482 482 0 0 0 0 0 0 0 0 0 0 0 0 0 0 0 0 484 484 484 484 484 484 484 484 484 484 483 483 483 0 0 0 0 0 0 0 0 0 0 0 0 0 0 0 0 0 0 0 480 481 480 481 481 481 482 482 482 482 482 0 0 0 0 0 0 0 0 0 0 0 0 0 0 0 0 0 0 0 0 0 0 0 0 0 0 0 0 0 0 0 0 0 0 0 0 0 0 0 0 0 0 0 0 604 605 605 605 605 605 606 606 606 606 606 606 606 606 606 606 606 606 606 605 605 605 605 604 604 603 603 603 603 603 603 603 603 603 603 604 605 605 605 605 605 605 605 605 605 605 605 605 605 605 605 604 604 603 603 603 603 603 603 603 603 603 603 603 602 602 602 602 602 602 602 602 601 601 601 601 601 601 601 601 601 601 601 601 601 601 601 602 602 602 602 603 603 603 603 603 603 603 603 603 603 602 602 602 602 602 602 602 601 601 601 601 601 600 600 600 600 600 600 600 601 601 601 601 601 601 601 601 600 600 599 0 0 0 0 0 0 0 0 0 0 0 0 0 0 0 0 0 0 0 0 0 0 0 0 0 0 0 0 0 0 0 0 0
0 0 0 0 604 604 605 605 605 605 605 605 604 604 603 603 603 603 603 603 604 604 604 604 604 604 603 603 603 603 603 603 603 604 604 604 605 605 605 605 605 605 606 606 606 605 605 605 605 605 605 605 605 605 605 605 605 604 604 603 603 603 603 604 604 605 605 605 606 606 606 606 605 605 605 605 605 605 605 604 604 604 604 604 604 604 604 604 604 604 604 604 605 605 605 605 605 605 605 605 606 606 606 606 605 605 605 605 605 605 604 604 604 604 604 0 0 0 0 0 0 0 0 0 0 0 485 485 486 0 0 0 0 0 0 0 0 0 0 0 0 0 0 0 0 0 0 0 0 0 0 0 0 0 0 0 0 0 0 0 0 0 0 0 0 0 0 0 0 0 0 0 0 0 0 0 0 0 0 0 0 0 0 0 0 0 0 0 0 0 0 0 0 0 0 0 0 0 0 482 482 482 482 482 482 482 482 482 482 482 482 482 482 0 0 0 0 0 0 0 0 0 0 0 0 0 0 0 0 484 484 484 484 484 484 484 484 484 484 484 483 483 0 0 0 0 0 0 0 0 0 0 0 0 0 0 0 0 480 480 480 480 480 480 481 481 481 481 482 482 482 482 0 0 0 0 0 0 0 0 0 0 0 0 0 0 0 0 0 0 0 0 0 0 0 0 0 0 0 0 0 0 0 0 0 0 0 0 0 0 0 0 0 0 0 0 603 603 604 604 604 605 605 605 605 605 605 605 605 605 605 605 605 605 604 604 603 603 603 603 602 602 602 602 602 602 602 602 602 603 603 603 604 604 604 604 604 604 604 605 605 605 604 604 604 603 603 603 603 602 602 602 602 602 602 602 602 602 602 602 601 601 601 601 601 601 601 601 601 601 600 600 600 600 600 600 599 599 600 600 600 601 601 601 601 601 601 602 602 602 602 602 602 602 602 602 602 602 601 601 601 601 601 601 601 600 600 600 599 599 599 599 599 599 599 599 599 600 601 601 601 601 600 600 599 599 598 598 0 0 0 0 0 0 0 0 0 0 0 0 0 0 0 0 0 0 0 0 0 0 0 0 0 0 0 0 0 0 0 0
0 0 0 0 603 603 603 604 604 604 603 603 603 603 603 602 602 602 602 603 603 603 603 603 603 603 603 602 602 602 602 603 603 603 603 603 603 603 603 604 604 604 605 605 605 605 605 605 605 605 604 604 604 604 604 604 604 603 603 603 603 603 603 603 603 603 604 605 605 605 605 605 605 605 604 604 603 603 603 603 603 603 603 603 603 603 603 603 603 603 603 603 603 603 604 604 604 605 605 605 605 605 605 605 605 604 604 604 604 603 603 603 603 603 603 0 0 0 0 0 0 0 0 0 0 0 484 484 485 0 0 0 0 0 0 0 0 0 0 0 0 0 0 0 0 0 0 0 0 0 0 0 0 0 0 0 0 0 0 0 0 0 0 0 0 0 0 0 0 0 0 0 0 0 0 0 0 0 0 0 0 0 0 0 0 0 0 0 0 0 0 0 0 0 482 482 483 482 482 482 482 482 482 482 482 482 482 482 482 482 482 482 482 0 0 0 0 0 0 0 0 0 0 0 0 0 0 0 0 483 483 484 484 484 484 484 485 484 484 0 483 0 0 0 0 0 0 0 0 0 0 0 0 0 0 0 0 480 480 480 480 480 480 480 481 481 481 481 481 482 482 481 0 0 0 0 0 0 0 0 0 0 0 0 0 0 0 0 0 0 0 0 0 0 0 0 0 0 0 0 0 0 0 0 0 0 0 0 0 0 0 0 0 0 0 0 603 602 603 603 603 603 603 603 603 603 603 603 603 603 603 603 603 603 603 602 602 602 602 602 601 601 601 601 601 601 602 602 602 602 603 603 603 603 603 603 603 603 603 603 603 603 603 603 603 603 602 602 602 602 601 601 601 601 601 601 601 601 601 601 600 600 600 600 600 600 600 600 600 600 599 599 599 599 599 599 599 599 599 599 599 599 599 600 600 600 601 601 601 601 601 601 601 601 601 601 601 601 600 600 600 600 600 599 599 599 599 599 599 598 598 598 598 598 599 599 599 599 600 600 600 599 599 599 598 598 597 598 0 0 0 0 0 0 0 0 0 0 0 0 0 0 0 0 0 0 0 0 0 0 0 0 0 0 0 0 0 0 0 0
0 0 0 0 602 602 603 603 603 603 603 602 602 602 602 602 601 601 602 602 602 602 602 602 602 602 602 602 602 602 602 602 602 602 602 602 602 602 602 603 603 603 603 603 603 603 603 603 603 603 603 603 603 603 603 603 603 603 603 602 602 602 602 602 602 603 603 603 603 604 604 603 603 603 603 603 602 602 602 602 602 602 602 602 602 602 602 602 602 602 602 602 602 602 603 603 603 603 603 604 604 604 604 604 604 603 603 603 603 602 602 602 602 602 0 0 0 0 0 0 0 0 0 0 0 0 483 484 484 0 0 0 0 0 0 0 0 0 0 0 0 0 0 0 0 0 0 0 0 0 0 0 0 0 0 0 0 0 0 0 0 0 0 0 0 0 0 0 0 0 0 0 0 0 0 0 0 0 0 0 0 0 0 0 0 0 0 0 0 0 0 0 0 482 482 482 482 482 482 482 482 482 482 482 482 482 482 482 482 481 481 481 0 0 0 0 0 0 0 0 0 0 0 0 0 0 0 0 0 483 483 483 484 484 484 0 0 0 0 0 0 0 0 0 0 0 0 0 0 0 0 0 0 0 480 479 480 480 480 480 480 480 480 480 481 481 481 481 481 481 481 481 0 0 0 0 0 0 0 0 0 0 0 0 0 0 0 0 0 0 0 0 0 0 0 0 0 0 0 0 0 0 0 0 0 0 0 0 0 0 0 0 0 0 0 0 602 602 602 602 602 602 602 602 602 602 602 602 602 602 602 602 602 601 601 601 601 601 601 600 600 600 600 600 600 601 601 601 601 602 602 602 603 603 603 603 603 603 603 603 603 603 603 602 602 602 601 601 601 601 600 600 600 600 600 600 599 599 599 599 599 599 599 599 599 599 599 599 599 599 599 599 599 599 598 598 598 598 598 598 598 598 599 599 599 599 599 600 600 600 600 601 601 601 600 600 600 599 599 599 599 599 599 599 598 598 598 598 598 598 598 598 598 598 598 598 598 599 599 599 599 599 598 598 598 597 597 597 596 0 0 0 0 0 0 0 0 0 0 0 0 0 0 0 0 0 0 0 0 0 0 0 0 0 0 0 0 0 0 0
0 0 0 0 601 601 602 602 602 602 602 602 601 601 601 601 601 601 601 601 601 601 601 601 601 601 601 601 601 601 601 601 601 601 601 601 601 602 602 602 602 602 602 602 602 602 602 602 602 602 602 602 602 602 602 602 602 602 602 602 602 602 601 602 602 602 602 602 603 603 603 603 602 602 602 602 602 601 601 601 601 601 601 601 601 601 601 601 601 601 601 601 601 601 602 602 602 602 603 603 603 603 603 603 603 603 602 602 602 602 601 601 601 601 0 0 0 0 0 0 0 0 0 0 0 0 483 483 0 0 0 0 0 0 0 0 0 0 0 0 0 0 0 0 0 0 0 0 0 0 0 0 0 0 0 0 0 0 0 0 0 0 0 0 0 0 0 0 0 0 0 0 0 0 0 0 0 0 0 0 0 0 0 0 0 0 0 0 0 0 0 0 0 0 482 482 482 482 482 482 482 482 482 481 481 481 481 481 481 481 481 0 0 0 0 0 0 0 0 0 0 0 0 0 0 0 0 0 0 483 483 483 483 484 0 0 0 0 0 0 0 0 0 0 0 0 0 480 480 479 479 479 479 479 479 479 480 480 480 480 480 480 480 480 480 481 481 481 481 481 481 481 0 0 0 0 0 0 0 0 0 0 0 0 0 0 0 0 0 0 0 0 0 0 0 0 0 0 0 0 0 0 0 0 0 0 0 0 0 0 0 0 0 0 0 0 601 601 601 601 601 601 601 601 601 601 601 601 601 601 600 600 600 600 600 599 599 599 599 599 599 599 599 599 599 599 600 601 601 601 602 602 602 602 603 603 603 603 602 602 602 602 602 602 601 601 601 600 600 599 599 599 599 599 599 599 599 599 598 598 598 598 598 598 598 598 598 598 598 599 598 598 598 598 598 598 598 598 598 598 598 598 598 598 598 598 599 599 599 599 599 599 599 599 599 599 599 598 598 598 598 598 598 598 598 598 597 597 597 597 597 597 597 597 597 598 598 598 598 599 598 598 598 597 597 596 595 595 595 0 0 0 0 0 0 0 0 0 0 0 0 0 0 0 0 0 0 0 0 0 0 0 0 0 0 0 0 0 0 0
0 0 0 0 600 601 601 601 601 601 601 601 601 600 600 599 599 599 599 600 600 600 600 600 600 600 600 599 599 599 599 600 600 600 600 601 601 601 601 601 601 601 601 601 601 601 601 602 602 602 602 602 602 602 602 601 601 601 601 601 601 601 601 601 601 601 602 602 602 602 602 602 601 601 601 601 601 600 600 600 600 600 600 599 599 599 599 599 599 599 600 600 600 601 601 601 601 602 602 602 602 602 602 602 602 602 602 602 601 601 601 600 600 600 0 0 0 0 0 0 0 0 0 0 0 0 482 482 0 0 0 0 0 0 0 0 0 0 0 0 0 0 0 0 0 0 0 0 0 0 0 0 0 0 0 0 0 0 0 0 0 0 0 0 0 0 0 0 0 0 0 0 0 0 0 0 0 0 0 0 0 0 0 0 0 0 0 0 0 0 0 0 0 0 0 482 482 482 482 482 482 481 481 481 481 481 481 0 0 0 0 0 0 0 0 0 0 0 0 0 0 0 0 0 0 0 0 0 0 483 483 483 483 0 0 0 0 0 0 0 0 0 0 0 0 0 0 480 479 479 479 479 479 479 479 479 479 479 479 479 479 480 480 480 480 480 481 481 481 481 481 481 0 0 0 0 0 0 0 0 0 0 0 0 0 0 0 0 0 0 0 0 0 0 0 0 0 0 0 0 0 0 0 0 0 0 0 0 0 0 0 0 0 0 0 0 599 599 599 600 600 601 601 600 600 600 599 599 599 599 599 599 598 598 598 598 598 598 598 598 598 598 598 598 598 599 599 599 601 601 601 602 602 602 602 602 602 602 602 601 601 601 601 601 600 600 599 599 599 599 599 599 598 598 598 598 598 598 598 597 597 597 597 597 597 597 597 598 598 598 598 598 598 598 598 597 597 597 597 597 597 597 597 597 597 598 598 598 598 598 598 598 598 598 598 598 598 598 597 597 597 597 597 597 597 597 597 597 596 596 596 596 596 597 597 597 597 598 598 598 598 597 597 597 596 595 594 595 595 595 0 0 0 0 0 0 0 0 0 0 0 0 0 0 0 0 0 0 0 0 0 0 0 0 0 0 0 0 0 0
0 0 0 0 599 600 600 600 601 601 600 600 599 599 599 599 599 599 599 599 599 599 599 599 599 599 599 599 599 599 599 599 599 599 599 599 599 599 599 599 599 600 600 600 600 600 601 601 601 601 601 601 601 601 601 601 601 601 600 600 600 600 600 600 601 601 601 601 601 601 601 601 600 600 599 599 599 599 599 599 599 599 599 599 599 599 599 599 599 599 599 599 599 599 599 600 600 601 601 601 601 601 602 602 602 602 601 601 600 600 599 599 599 599 0 0 0 0 0 0 0 0 0 0 0 481 481 481 0 0 0 0 0 0 0 0 0 0 0 0 0 0 0 0 0 0 0 0 0 0 0 0 0 0 0 0 0 0 0 0 0 0 0 0 0 0 0 0 0 0 0 0 0 0 0 0 0 0 0 0 0 0 0 0 0 0 0 0 0 0 0 0 0 0 0 0 0 0 0 481 481 481 0 0 0 0 0 0 0 0 0 0 0 0 0 0 0 0 0 0 0 0 0 0 0 0 0 0 0 0 482 482 483 0 0 0 0 0 0 0 0 0 0 0 0 0 0 479 479 479 479 478 478 478 478 479 479 479 479 479 479 479 480 480 480 480 480 480 481 481 481 480 0 0 0 0 0 0 0 0 0 0 0 0 0 0 0 0 0 0 0 0 0 0 0 0 0 0 0 0 0 0 0 0 0 0 0 0 0 0 0 0 0 0 0 0 598 599 599 599 599 599 599 599 599 599 598 598 598 598 597 597 597 597 597 597 597 597 597 597 597 597 597 597 598 598 599 599 600 600 601 601 601 601 601 601 601 601 601 601 600 600 600 600 599 599 599 598 598 598 598 598 598 598 597 597 597 597 597 597 596 596 596 596 596 597 597 597 597 597 597 597 597 597 597 597 597 597 597 597 597 597 597 597 597 597 597 597 597 597 597 597 597 597 597 597 597 597 597 597 597 597 596 596 596 596 596 595 595 595 595 595 595 595 596 597 597 597 597 597 597 597 596 595 595 594 594 594 594 594 0 0 0 0 0 0 0 0 0 0 0 0 0 0 0 0 0 0 0 0 0 0 0 0 0 0 0 0 0 0
0 0 0 0 598 599 599 599 599 599 599 599 599 598 598 598 598 598 598 598 598 598 598 598 598 598 598 598 598 598 598 598 598 598 598 598 598 598 598 598 598 598 599 599 599 599 599 599 600 600 600 600 600 600 600 599 599 599 599 599 599 599 599 599 599 599 600 600 600 600 600 599 599 599 599 598 598 598 598 598 598 598 598 598 598 598 598 598 598 598 598 598 598 598 598 599 599 599 600 600 601 601 601 601 601 601 601 600 599 599 599 598 598 0 0 0 0 0 0 0 0 0 0 0 0 480 480 480 0 0 0 0 0 0 0 0 0 0 0 0 0 0 0 0 0 0 0 0 0 0 0 0 0 0 0 0 0 0 0 0 0 0 0 0 0 0 0 0 0 0 0 0 0 0 0 0 0 0 0 0 0 0 0 0 0 0 0 0 0 0 0 0 0 0 0 0 0 0 0 0 0 0 0 0 0 0 0 0 0 0 0 0 0 0 0 0 0 0 0 0 0 0 0 0 0 0 0 0 0 0 482 482 482 0 0 0 0 0 0 0 0 0 0 0 0 0 0 0 479 479 479 479 478 478 478 479 479 479 479 479 479 479 479 480 480 480 480 480 480 480 480 480 0 0 0 0 0 0 0 0 0 0 0 0 0 0 0 0 0 0 0 0 0 0 0 0 0 0 0 0 0 0 0 0 0 0 0 0 0 0 0 0 0 0 0 0 598 598 598 598 598 598 598 598 598 597 597 597 597 597 596 596 596 596 596 596 596 595 595 595 595 596 596 597 597 598 598 599 599 600 600 601 601 601 601 601 601 600 600 600 599 599 599 599 599 598 598 598 598 597 597 597 597 597 597 597 597 596 596 595 595 595 595 595 595 595 596 596 597 597 597 597 596 596 596 596 596 596 596 596 596 596 596 595 595 596 596 596 597 597 597 597 597 597 596 596 596 596 596 595 595 595 595 595 595 595 595 595 595 594 594 594 594 595 595 595 596 596 597 597 596 596 595 595 594 594 593 593 593 593 594 0 0 0 0 0 0 0 0 0 0 0 0 0 0 0 0 0 0 0 0 0 0 0 0 0 0 0 0 0
0 0 0 0 598 598 598 599 599 598 598 598 598 598 598 597 597 597 597 597 597 597 597 597 598 598 597 597 597 597 598 598 598 598 598 598 598 598 597 597 597 597 598 598 598 598 598 599 599 599 599 599 599 599 599 599 599 598 598 598 598 598 598 598 599 599 599 599 599 599 599 599 598 598 598 598 598 597 597 597 597 597 597 597 597 597 597 597 597 597 597 597 597 597 597 598 598 598 599 599 599 599 600 600 600 599 599 599 599 599 598 598 598 0 0 0 0 0 0 0 0 0 0 0 0 0 480 480 0 0 0 0 0 0 0 0 0 0 0 0 0 0 0 0 0 0 0 0 0 0 0 0 0 0 0 0 0 0 0 0 0 0 0 0 0 0 0 0 0 0 0 0 0 0 0 0 0 0 0 0 0 0 0 0 0 0 0 0 0 0 0 0 0 0 0 0 0 0 0 0 0 0 0 0 0 0 0 0 0 0 0 0 0 0 0 0 0 0 0 0 0 0 0 0 0 0 0 0 0 0 481 481 0 0 0 0 0 0 0 0 0 0 0 0 0 0 0 0 479 479 478 478 478 478 478 478 478 479 479 479 479 479 479 479 479 480 480 480 480 480 480 480 0 0 0 0 0 0 0 0 0 0 0 0 0 0 0 0 0 0 0 0 0 0 0 0 0 0 0 0 0 0 0 0 0 0 0 0 0 0 0 0 0 0 0 0 0 597 597 597 597 597 597 597 597 597 596 595 595 595 595 595 595 595 595 595 595 595 595 595 595 595 595 596 597 597 598 598 598 599 599 600 600 601 600 600 600 599 599 599 599 598 598 598 598 598 597 597 597 597 596 596 596 596 596 596 595 595 595 595 595 594 594 595 595 595 595 595 596 596 596 596 595 595 595 595 595 595 595 595 595 595 595 595 595 595 595 595 595 595 595 595 595 595 595 595 595 595 595 595 595 595 595 595 595 595 594 594 594 594 594 594 594 594 594 595 595 595 596 596 595 595 594 594 593 593 592 592 592 592 594 0 0 0 0 0 0 0 0 0 0 0 0 0 0 0 0 0 0 0 0 0 0 0 0 0 0 0 0 0
0 0 0 0 597 597 598 598 598 598 598 597 597 597 597 597 597 597 597 597 597 597 597 597 597 597 597 597 597 597 597 597 597 597 597 597 597 597 597 597 596 596 597 597 597 597 598 598 598 598 598 598 598 598 598 598 598 598 598 598 598 598 598 598 598 598 598 598 598 598 598 598 598 597 597 597 597 597 597 597 597 597 597 597 597 596 596 596 596 595 595 595 596 596 596 597 597 597 598 598 598 599 599 599 599 599 599 598 598 598 598 598 0 0 0 0 0 0 0 0 0 0 0 0 0 0 479 0 0 0 0 0 0 0 0 0 0 0 0 0 0 0 0 0 0 0 0 0 0 0 0 0 0 0 0 0 0 0 0 0 0 0 0 0 0 0 0 0 0 0 0 0 0 0 0 0 0 0 0 0 0 0 0 0 0 0 0 0 0 0 0 0 0 0 0 0 0 0 0 0 0 0 0 0 0 0 0 0 0 0 0 0 0 0 0 0 0 0 0 0 0 0 0 0 0 0 0 0 0 0 0 0 0 0 0 0 0 0 0 0 0 0 0 0 0 0 0 0 0 478 478 478 477 477 477 478 478 478 478 478 478 479 479 479 479 479 479 479 479 479 479 479 0 0 0 0 0 0 0 0 0 0 0 0 0 0 0 0 0 0 0 0 0 0 0 0 0 0 0 0 0 0 0 0 0 0 0 0 0 0 0 0 0 0 0 0 0 596 596 596 596 596 596 596 595 595 595 594 594 594 594 594 594 594 594 594 594 594 594 594 594 595 595 595 596 597 597 598 598 599 599 599 599 599 599 599 599 599 598 598 598 597 597 597 597 597 597 596 596 595 595 595 595 595 595 595 595 595 594 594 594 594 594 594 594 594 595 595 595 595 595 595 595 595 595 595 595 595 595 595 595 595 594 594 594 594 594 595 595 595 595 595 595 594 594 594 594 594 594 594 594 594 594 594 594 594 594 593 593 593 593 593 593 593 594 594 594 595 595 595 595 594 594 594 593 592 592 591 592 592 593 0 0 0 0 0 0 0 0 0 0 0 0 0 0 0 0 0 0 0 0 0 0 0 0 0 0 0 0 0
0 0 0 0 596 597 597 597 597 597 597 597 597 597 596 596 596 596 596 596 596 596 596 596 596 596 596 596 596 597 597 597 597 597 596 596 596 596 595 595 595 595 595 595 596 596 597 597 597 597 597 597 597 597 597 597 597 597 597 597 597 597 597 597 597 597 597 598 597 597 597 597 597 597 596 596 596 596 596 596 596 596 596 596 596 595 595 595 595 595 595 595 595 595 595 595 595 596 597 597 598 598 598 598 598 598 598 598 598 597 597 597 0 0 0 0 0 0 0 0 0 0 0 0 0 0 0 0 0 0 0 0 0 0 0 0 0 0 0 0 0 0 0 0 0 0 0 0 0 0 0 0 0 0 0 0 0 0 0 0 0 0 0 0 0 0 0 0 0 0 0 0 0 0 0 0 0 0 0 0 0 0 0 0 0 0 0 0 0 0 0 0 0 0 0 0 0 0 0 0 0 0 0 0 0 0 0 0 0 0 0 0 0 0 0 0 0 0 0 0 0 0 0 0 0 0 0 0 0 0 0 0 0 0 0 0 0 0 0 0 0 0 0 0 0 0 0 0 0 0 478 477 477 477 477 477 477 477 477 478 478 478 478 478 478 479 479 479 479 479 479 478 0 0 0 0 0 0 0 0 0 0 0 0 0 0 0 0 0 0 0 0 0 0 0 0 0 0 0 0 0 0 0 0 0 0 0 0 0 0 0 0 0 0 0 0 0 595 595 595 595 595 595 595 595 594 594 594 594 593 593 593 593 593 593 593 593 593 593 593 594 594 594 595 595 596 597 597 597 598 598 598 599 599 598 598 598 598 598 597 597 597 596 596 596 595 595 595 595 595 595 595 594 594 594 594 594 594 594 594 593 593 593 593 594 594 594 594 594 594 594 594 594 594 594 594 594 594 594 594 594 594 594 594 594 594 594 594 594 594 594 594 594 594 594 594 594 593 593 593 593 594 594 593 593 593 593 593 592 592 592 592 593 593 593 593 594 594 594 594 594 594 593 593 592 592 591 590 591 591 592 593 0 0 0 0 0 0 0 0 0 0 0 0 0 0 0 0 0 0 0 0 0 0 0 0 0 0 0 0
0 0 0 0 595 596 596 596 597 597 596 596 596 596 595 595 595 595 595 595 595 595 595 595 595 595 595 595 595 596 596 596 595 595 595 595 595 595 595 594 594 594 594 595 595 595 595 596 596 597 597 597 597 597 597 596 596 596 596 596 596 596 597 597 597 597 597 597 597 596 596 596 595 595 595 595 595 595 595 595 595 595 595 595 595 595 595 595 594 594 594 594 594 594 594 594 595 595 595 596 597 597 597 598 598 598 597 597 597 597 596 0 0 0 0 0 0 0 0 0 0 0 0 0 0 0 0 0 0 0 0 0 0 0 0 0 0 0 0 0 0 0 0 0 0 0 0 0 0 0 0 0 0 0 0 0 0 0 0 0 0 0 0 0 0 0 0 0 0 0 0 0 0 0 0 0 0 0 0 0 0 0 0 0 0 0 0 0 0 0 0 0 0 0 0 0 0 0 0 0 0 0 0 0 0 0 0 0 0 0 0 0 0 0 0 0 0 0 0 0 0 0 0 0 0 0 0 0 0 0 0 0 0 0 0 0 0 0 0 0 0 0 0 0 0 0 0 0 0 0 0 477 477 477 477 477 477 477 477 477 477 477 477 477 478 478 478 478 478 478 478 478 0 0 0 0 0 0 0 0 0 0 0 0 0 0 0 0 0 0 0 0 0 0 0 0 0 0 0 0 0 0 0 0 0 0 0 0 0 0 0 0 0 0 0 0 0 0 594 594 595 595 594 594 594 594 593 593 593 593 593 592 592 592 592 592 592 593 593 593 593 594 594 595 595 595 596 597 597 597 597 598 598 598 598 598 597 597 597 597 596 595 595 595 595 595 595 594 594 594 594 594 594 594 594 594 594 594 593 593 593 593 593 593 593 593 593 594 594 594 594 594 593 593 593 593 593 593 593 593 593 593 593 593 593 593 593 593 593 593 593 593 593 593 593 593 593 593 593 593 593 593 593 593 593 592 592 592 592 592 592 592 592 592 592 593 593 593 593 593 593 593 593 592 592 590 590 590 590 590 591 592 0 0 0 0 0 0 0 0 0 0 0 0 0 0 0 0 0 0 0 0 0 0 0 0 0 0 0 0
0 0 0 0 595 595 595 595 595 596 595 595 595 595 595 595 595 595 595 595 595 594 595 595 595 595 595 595 595 595 595 595 595 595 595 595 594 594 594 594 594 594 594 594 594 594 595 595 595 595 595 595 595 595 595 595 595 595 595 595 595 595 595 595 596 596 596 595 595 595 595 595 595 594 594 594 594 594 594 594 595 595 595 595 595 594 594 594 594 593 593 593 593 593 594 594 594 594 595 595 595 596 597 597 597 597 597 597 596 595 596 0 0 0 0 0 0 0 0 0 0 0 0 0 0 0 0 0 0 0 0 0 0 0 0 0 0 0 0 0 0 0 0 0 0 0 0 0 0 0 0 0 0 0 0 0 0 0 0 0 0 0 0 0 0 0 0 0 0 0 0 0 0 0 0 0 0 0 0 0 0 0 0 0 0 0 0 0 0 0 0 0 0 0 0 0 0 0 0 0 0 0 0 0 0 0 0 0 0 0 0 0 0 0 0 0 0 0 0 0 0 0 0 0 0 0 0 0 0 0 0 0 0 0 0 0 0 0 0 0 0 0 0 0 0 0 0 0 0 0 0 476 476 476 476 476 476 476 476 477 477 477 477 477 477 477 477 477 477 477 477 477 0 0 0 0 0 0 0 0 0 0 0 0 0 0 0 0 0 0 0 0 0 0 0 0 0 0 0 0 0 0 0 0 0 0 0 0 0 0 0 0 0 0 0 0 0 0 594 594 594 594 594 594 593 593 593 592 592 592 592 592 592 592 592 592 592 592 592 593 593 593 594 594 594 595 595 595 596 596 596 597 597 597 597 596 596 595 595 595 595 595 594 594 594 594 594 594 594 593 593 593 593 593 593 593 593 593 593 593 592 592 592 592 593 593 593 593 593 593 593 593 593 593 593 593 593 593 593 593 593 593 592 592 592 592 592 592 592 592 592 592 592 592 592 592 592 592 592 592 592 592 592 592 592 592 591 591 590 590 590 590 591 591 592 592 592 593 593 593 592 592 592 591 591 590 590 589 589 589 590 591 592 0 0 0 0 0 0 0 0 0 0 0 0 0 0 0 0 0 0 0 0 0 0 0 0 0 0 0
0 0 0 0 594 594 595 595 595 595 595 595 595 595 595 594 594 594 594 594 594 594 594 594 594 594 594 594 594 594 594 594 594 594 594 594 594 593 593 593 593 593 593 593 593 593 594 594 595 595 595 595 595 595 595 595 594 594 594 594 595 595 595 595 595 595 595 595 595 594 594 594 594 594 593 593 593 593 594 594 594 594 594 594 594 594 594 593 593 593 593 593 593 593 593 593 593 594 594 594 595 595 595 596 596 596 596 595 595 595 0 0 0 0 0 0 0 0 0 0 0 0 0 0 0 0 0 0 0 0 0 0 0 0 0 0 0 0 0 0 0 0 0 0 0 0 0 0 0 0 0 0 0 0 0 0 0 0 0 0 0 0 0 0 0 0 0 0 0 0 0 0 0 0 0 0 0 0 0 0 0 0 0 0 0 0 0 0 0 0 0 0 0 0 0 0 0 0 0 0 0 0 0 0 0 0 0 0 0 0 0 0 0 0 0 0 0 0 0 0 0 0 0 0 0 0 0 0 0 0 0 0 0 0 0 0 0 0 0 0 0 0 0 0 0 0 0 0 0 0 0 0 476 476 476 476 476 476 476 476 476 476 476 476 476 476 476 476 476 477 477 477 0 0 0 0 0 0 0 0 0 0 0 0 0 0 0 0 0 0 0 0 0 0 0 0 0 0 0 0 0 0 0 0 0 0 0 0 0 0 0 0 0 0 0 0 0 0 593 593 593 593 593 593 593 593 592 592 592 592 592 591 591 591 591 591 591 592 592 592 593 593 593 593 594 594 594 595 595 595 595 595 595 595 595 595 595 595 595 594 594 594 594 594 593 593 593 593 593 593 593 593 593 593 593 593 592 592 592 592 592 592 592 592 592 592 592 592 592 592 592 592 592 592 592 592 592 592 592 592 592 592 592 592 592 592 592 592 591 591 591 591 591 591 591 591 591 590 590 590 591 591 591 591 590 590 590 590 590 590 590 590 590 590 590 591 592 592 592 592 592 592 591 590 590 589 589 589 589 588 589 590 590 0 0 0 0 0 0 0 0 0 0 0 0 0 0 0 0 0 0 0 0 0 0 0 0 0 0 0
0 0 0 0 593 594 594 594 594 594 594 594 594 594 594 594 594 594 594 594 594 593 593 593 593 594 594 594 594 594 594 594 594 594 593 593 593 593 592 592 592 592 592 592 593 593 593 593 594 594 594 594 594 594 594 594 594 594 594 594 594 594 594 594 594 594 594 594 594 594 594 593 593 593 593 593 593 593 593 593 593 593 593 593 593 593 593 593 592 592 592 592 592 592 592 592 593 593 593 594 594 594 595 595 595 595 595 595 595 595 0 0 0 0 0 0 0 0 0 0 0 0 0 0 0 0 0 0 0 0 0 0 0 0 0 0 0 0 0 0 0 0 0 0 0 0 0 0 0 0 0 0 0 0 0 0 0 0 0 0 0 0 0 0 0 0 0 0 0 0 0 0 0 0 0 0 0 0 0 0 0 0 0 0 0 0 0 0 0 0 0 0 0 0 0 0 0 0 0 0 0 0 0 0 0 0 0 0 0 0 0 0 0 0 0 0 0 0 0 0 0 0 0 0 0 0 0 0 0 0 0 0 0 0 0 0 0 0 0 0 0 0 0 0 0 0 0 0 0 0 0 0 475 475 475 475 475 475 475 475 476 476 476 476 476 476 476 476 476 476 476 476 0 0 0 0 0 0 0 0 0 0 0 0 0 0 0 0 0 0 0 0 0 0 0 0 0 0 0 0 0 0 0 0 0 0 0 0 0 0 0 0 0 0 0 0 0 0 0 593 593 592 592 592 592 592 592 591 591 591 591 590 590 590 590 590 590 591 592 592 592 592 593 593 593 594 594 594 594 594 594 594 594 594 594 594 594 594 594 593 593 593 593 593 593 593 593 592 592 592 592 592 592 592 592 592 592 592 592 592 591 591 591 591 591 591 592 592 592 592 592 592 592 592 592 591 591 591 591 591 591 591 590 590 590 590 590 590 590 590 590 590 590 590 590 590 590 590 590 590 590 590 590 590 590 589 589 589 589 589 589 589 589 590 590 590 590 591 591 591 591 590 590 589 589 589 588 588 588 588 588 588 589 0 0 0 0 0 0 0 0 0 0 0 0 0 0 0 0 0 0 0 0 0 0 0 0 0 0 0
0 0 0 0 593 593 593 594 594 594 594 594 594 594 593 593 593 593 593 593 593 593 593 593 593 593 593 593 593 593 593 593 593 593 593 593 592 592 592 592 592 591 591 592 592 592 592 592 593 593 593 593 593 593 593 593 593 593 593 593 593 593 593 593 593 593 593 593 593 593 593 592 592 592 592 592 592 592 592 592 592 593 593 593 592 592 592 592 592 592 592 592 592 592 592 592 592 592 593 593 593 594 594 594 594 594 594 594 594 0 0 0 0 0 0 0 0 0 0 0 0 0 0 0 0 0 0 0 0 0 0 0 0 0 0 0 0 0 0 0 0 0 0 0 0 0 0 0 0 0 0 0 0 0 0 0 0 0 0 0 0 0 0 0 0 0 0 0 0 0 0 0 0 0 0 0 0 0 0 0 0 0 0 0 0 0 0 0 0 0 0 0 0 0 0 0 0 0 0 0 0 0 0 0 0 0 0 0 0 0 0 0 0 0 0 0 0 0 0 0 0 0 0 0 0 0 0 0 0 0 0 0 0 0 0 0 0 0 0 0 0 0 0 0 0 0 0 0 0 0 0 0 0 475 475 474 474 475 475 475 475 475 475 475 475 475 475 475 475 475 475 475 0 0 0 0 0 0 0 0 0 0 0 0 0 0 0 0 0 0 0 0 0 0 0 0 0 0 0 0 0 0 0 0 0 0 0 0 0 0 0 0 0 0 0 0 0 0 0 592 592 592 592 592 592 591 591 590 590 590 590 590 590 590 590 590 590 590 591 591 592 592 592 593 593 593 593 593 593 593 593 593 593 593 593 593 593 593 593 592 592 592 592 592 592 592 592 592 592 591 591 591 591 591 591 591 591 591 591 590 590 590 590 590 590 590 590 590 591 591 591 591 590 590 590 590 590 590 590 590 590 590 590 590 590 590 590 589 589 589 589 589 589 589 589 589 589 589 589 589 589 589 589 589 589 589 589 588 588 588 588 588 588 589 589 589 590 590 590 590 590 590 589 589 589 588 588 587 587 587 587 587 588 589 0 0 0 0 0 0 0 0 0 0 0 0 0 0 0 0 0 0 0 0 0 0 0 0 0 0
0 0 0 0 592 593 593 593 593 593 593 593 593 593 593 593 593 593 593 592 592 592 592 592 592 592 592 592 592 592 592 592 592 592 592 592 592 591 591 590 590 590 590 590 591 591 592 592 592 592 592 592 592 592 592 592 592 592 592 592 592 592 592 593 593 593 593 593 592 592 592 592 591 591 591 591 591 591 591 591 592 592 592 592 592 592 591 591 591 591 591 590 590 590 591 591 592 592 592 592 593 593 593 593 593 593 593 593 593 0 0 0 0 0 0 0 0 0 0 0 0 0 0 0 0 0 0 0 0 0 0 0 0 0 0 0 0 0 0 0 0 0 0 0 0 0 0 0 0 0 0 0 0 0 0 0 0 0 0 0 0 0 0 0 0 0 0 0 0 0 0 0 0 0 0 0 0 0 0 0 0 0 0 0 0 0 0 0 0 0 0 0 0 0 0 0 0 0 0 0 0 0 0 0 0 0 0 0 0 0 0 0 0 0 0 0 0 0 0 0 0 0 0 0 0 0 0 0 0 0 0 0 0 0 0 0 0 0 0 0 0 0 0 0 0 0 0 0 0 0 0 0 0 474 474 474 474 474 474 474 474 474 474 474 474 474 474 474 474 474 475 474 0 0 0 0 0 0 0 0 0 0 0 0 0 0 0 0 0 0 0 0 0 0 0 0 0 0 0 0 0 0 0 0 0 0 0 0 0 0 0 0 0 0 0 0 0 0 0 590 591 590 590 590 590 590 590 590 590 590 590 590 589 589 590 590 590 590 590 590 591 591 592 592 592 593 593 593 592 592 592 592 592 592 592 592 592 592 592 592 592 592 592 591 591 591 591 590 590 590 590 590 590 590 590 590 590 590 590 590 590 590 590 590 590 590 590 590 590 590 590 590 590 590 590 589 589 589 589 589 589 589 589 589 589 589 589 589 589 589 589 588 588 588 588 588 588 588 588 588 588 588 588 588 588 588 588 588 588 588 588 588 588 588 589 589 589 589 589 589 589 589 588 588 588 587 587 587 586 586 586 586 587 588 588 0 0 0 0 0 0 0 0 0 0 0 0 0 0 0 0 0 0 0 0 0 0 0 0 0
0 0 0 0 592 592 592 592 593 593 593 593 593 593 592 592 592 592 592 592 592 591 591 591 591 591 591 591 591 591 591 592 592 591 591 591 590 590 590 590 589 589 589 589 590 590 590 591 591 591 591 591 591 591 591 591 591 591 591 591 591 592 592 592 592 592 592 592 592 591 591 590 590 590 590 590 590 590 590 590 590 590 591 591 591 590 590 590 590 590 590 590 590 590 590 590 590 591 591 592 592 592 593 593 593 593 593 592 592 0 0 0 0 0 0 0 0 0 0 0 0 0 0 0 0 0 0 0 0 0 0 0 0 0 0 0 0 0 0 0 0 0 0 0 0 0 0 0 0 0 0 0 0 0 0 0 0 0 0 0 0 0 0 0 0 0 0 0 0 0 0 0 0 0 0 0 0 0 0 0 0 0 0 0 0 0 0 0 0 0 0 0 0 0 0 474 474 475 474 0 0 0 0 0 0 0 0 0 0 0 0 0 0 0 0 0 0 0 0 0 0 0 0 0 0 0 0 0 0 0 0 0 0 0 0 0 0 0 0 0 0 0 0 0 0 0 0 0 0 0 0 0 0 474 473 473 473 473 473 474 474 474 474 474 474 474 474 474 474 474 474 474 0 0 0 0 0 0 0 0 0 0 0 0 0 0 0 0 0 0 0 0 0 0 0 0 0 0 0 0 0 0 0 0 0 0 0 0 0 0 0 0 0 0 0 0 0 0 0 590 590 590 590 590 590 590 590 590 589 589 589 589 589 589 589 589 589 589 590 590 590 591 591 592 592 592 592 592 592 592 592 592 591 591 591 591 591 591 591 591 591 590 590 590 590 590 590 590 590 589 589 589 589 589 589 589 589 589 589 589 589 589 589 589 589 589 589 589 589 589 589 589 589 589 589 589 589 589 589 588 588 588 588 588 588 588 588 588 588 588 588 588 587 587 587 587 587 587 587 587 587 587 587 587 587 587 587 587 587 587 587 587 587 588 588 588 588 588 588 588 588 588 588 587 587 587 586 586 586 584 586 586 586 586 587 0 0 0 0 0 0 0 0 0 0 0 0 0 0 0 0 0 0 0 0 0 0 0 0 0
0 0 0 0 591 591 592 592 592 592 592 592 592 592 592 592 592 592 591 591 590 590 590 590 590 590 590 590 590 590 590 590 590 590 590 590 590 589 589 589 589 589 589 589 589 589 590 590 590 590 590 590 590 590 590 590 590 590 590 590 590 590 590 591 591 591 591 591 590 590 590 589 589 589 589 589 589 589 589 590 590 590 590 590 590 590 590 590 590 589 589 589 589 589 589 590 590 590 590 590 591 591 592 592 592 592 592 592 591 0 0 0 0 0 0 0 0 0 0 0 0 0 0 0 0 0 0 0 0 0 0 0 0 0 0 0 0 0 0 0 0 0 0 0 0 0 0 0 0 0 0 0 0 0 0 0 0 0 0 0 0 0 0 0 0 0 0 0 0 0 0 0 0 0 0 0 0 0 0 0 0 0 0 0 0 0 0 0 0 0 0 0 0 0 0 473 474 474 474 474 474 474 474 473 473 473 472 0 0 0 0 0 0 0 0 0 0 0 0 0 0 0 0 0 0 0 0 0 0 0 0 0 0 0 0 0 0 0 0 0 0 0 0 0 0 0 0 0 0 0 0 0 0 0 473 473 473 473 473 473 473 473 473 473 473 473 473 473 473 473 473 473 0 0 0 0 0 0 0 0 0 0 0 0 0 0 0 0 0 0 0 0 0 0 0 0 0 0 0 0 0 0 0 0 0 0 0 0 0 0 0 0 0 0 0 0 0 0 0 0 589 589 589 589 589 589 589 589 589 589 589 589 589 588 589 589 589 589 589 589 590 590 590 591 591 591 591 591 591 590 590 590 590 590 590 590 590 590 590 590 590 590 590 589 589 589 589 589 589 589 589 589 589 589 589 589 589 588 588 588 588 588 588 588 588 588 588 588 588 588 588 588 588 588 588 588 588 588 588 588 588 588 588 588 588 588 588 588 587 587 587 587 587 586 586 586 586 586 586 586 586 586 587 587 586 586 586 586 586 586 586 586 587 587 587 587 587 587 588 587 587 587 587 587 587 586 586 585 584 584 584 584 584 585 585 586 0 0 0 0 0 0 0 0 0 0 0 0 0 0 0 0 0 0 0 0 0 0 0 0
0 0 0 0 590 590 590 591 591 592 592 592 592 591 591 591 591 590 590 590 590 590 589 589 589 589 589 589 589 589 589 589 589 589 589 589 589 589 588 588 588 588 588 588 588 588 589 589 589 589 589 589 589 589 589 589 589 589 589 589 589 589 590 590 590 590 590 590 589 589 589 589 588 588 588 588 588 589 589 589 589 589 589 589 589 589 589 589 589 589 589 589 589 589 589 589 589 589 590 590 590 590 590 591 591 591 590 590 0 0 0 0 0 0 0 0 0 0 0 0 0 0 469 0 0 0 0 0 0 0 0 0 0 0 0 0 0 0 0 0 0 0 0 0 0 0 0 0 0 0 0 0 0 0 0 0 0 0 0 0 0 0 0 0 0 0 0 0 0 0 0 0 0 0 0 0 0 0 0 0 0 0 0 0 0 0 0 0 0 0 0 0 0 0 472 472 473 473 473 473 473 473 473 473 472 472 472 472 472 472 0 0 0 0 0 0 0 0 0 0 0 0 0 0 0 0 0 0 0 0 0 0 0 0 0 0 0 0 0 0 0 0 0 0 0 0 0 0 0 0 0 0 0 0 472 472 472 472 472 472 472 472 472 472 472 472 472 472 472 472 473 0 0 0 0 0 0 0 0 0 0 0 0 0 0 0 0 0 0 0 0 0 0 0 0 0 0 0 0 0 0 0 0 0 0 0 0 0 0 0 0 0 0 0 0 0 0 0 0 0 589 589 589 589 589 589 589 589 589 589 588 588 588 588 588 588 588 588 589 589 589 590 590 590 590 590 590 590 590 589 589 589 589 589 589 589 589 589 589 589 589 589 589 589 589 588 588 588 588 588 588 588 588 588 588 588 588 588 588 588 588 588 588 588 588 588 588 588 588 588 588 588 588 588 588 588 587 587 587 587 587 587 587 587 587 587 587 587 587 587 586 586 586 586 585 585 585 585 585 585 585 586 586 586 586 585 585 585 585 585 586 586 586 586 586 586 587 587 587 587 587 586 586 586 586 586 585 584 584 583 583 583 584 584 585 585 586 586 0 0 0 0 0 0 0 0 0 0 0 0 0 0 0 0 0 0 0 0 0 0
0 0 0 0 589 590 590 590 590 590 590 590 590 590 590 590 590 590 590 589 589 589 589 589 589 589 589 589 589 589 589 589 589 589 589 588 588 588 588 588 587 587 587 587 587 588 588 588 589 589 589 589 589 588 588 588 588 588 588 588 589 589 589 589 589 589 589 589 589 588 588 588 588 588 588 588 588 588 588 588 588 588 588 589 589 588 588 588 588 588 588 588 588 588 588 588 588 589 589 589 589 589 590 590 590 590 590 589 0 0 0 0 0 0 0 0 0 0 0 0 0 0 468 469 0 0 0 0 0 0 0 0 0 0 0 0 0 0 0 0 0 0 0 0 0 0 0 0 0 0 0 0 0 0 0 0 0 0 0 0 0 0 0 0 0 0 0 0 0 0 0 0 0 0 0 0 0 0 0 0 0 0 0 0 0 0 0 0 0 0 0 0 0 472 472 472 472 472 472 472 472 472 472 472 472 472 472 472 471 471 472 0 0 0 0 0 0 0 0 0 0 0 0 0 0 0 0 0 0 0 0 0 0 0 0 0 0 0 0 0 0 0 0 0 0 0 0 0 0 0 0 0 0 0 471 471 472 472 472 472 472 472 472 472 472 472 472 472 472 472 472 0 0 0 0 0 0 0 0 0 0 0 0 0 0 0 0 0 0 0 0 0 0 0 0 0 0 0 0 0 0 0 0 0 0 0 0 0 0 0 0 0 0 0 0 0 0 0 0 0 588 588 588 588 588 588 588 588 588 588 588 588 588 588 588 588 588 588 588 588 589 589 589 589 589 589 589 589 589 589 588 588 588 588 588 588 588 588 588 588 588 588 588 588 588 588 588 588 588 587 587 587 587 587 587 587 587 587 587 587 587 587 587 587 587 587 587 587 587 587 587 587 587 587 587 587 587 587 587 587 586 586 586 586 586 586 586 586 586 586 586 585 584 584 584 584 584 584 584 584 584 584 584 584 584 584 584 584 584 584 584 584 584 585 585 586 586 586 586 586 586 586 586 585 585 585 584 584 583 583 582 582 583 583 583 584 585 586 586 0 0 0 0 0 0 0 0 0 0 0 0 0 0 0 0 0 0 0 0 0
0 0 0 0 589 589 589 589 590 590 590 590 590 590 590 590 589 589 589 589 588 588 588 588 588 588 588 588 588 588 588 588 588 588 588 588 588 587 587 587 587 587 587 587 587 587 587 588 588 588 588 588 588 588 587 587 587 587 587 587 588 588 588 588 588 588 588 588 588 587 587 587 587 587 587 587 587 587 587 587 588 588 588 588 588 588 588 588 588 587 587 587 587 587 587 587 588 588 588 588 589 589 589 589 589 589 589 589 0 0 0 0 0 0 0 0 0 0 0 0 0 467 468 469 0 0 0 0 0 0 0 0 0 0 0 0 0 0 0 0 0 0 0 0 0 0 0 0 0 0 0 0 0 0 0 0 0 0 0 0 0 0 0 0 0 0 0 0 0 0 0 0 0 0 0 0 0 0 0 0 0 0 0 0 0 0 0 0 0 0 0 0 0 471 471 471 472 472 472 472 472 472 472 472 471 471 471 471 471 471 471 0 0 0 0 0 0 0 0 0 0 0 0 0 0 0 0 0 0 0 0 0 0 0 0 0 0 0 0 0 0 0 0 0 0 0 0 0 0 0 0 0 0 0 471 471 471 471 471 471 471 471 471 471 471 471 471 471 471 471 472 0 0 0 0 0 0 0 0 0 0 0 0 0 0 0 0 0 0 0 0 0 0 0 0 0 0 0 0 0 0 0 0 0 0 0 0 0 0 0 0 0 0 0 0 0 0 0 0 0 587 587 587 587 587 587 588 588 588 588 588 588 587 587 587 587 587 587 588 588 588 588 589 589 589 588 588 588 588 588 588 587 587 587 587 587 587 587 587 587 587 587 587 587 587 587 587 587 587 587 587 586 586 586 586 586 586 586 586 586 586 586 586 586 586 586 586 586 586 586 586 586 586 586 586 586 586 586 586 586 586 586 585 586 586 586 586 585 585 584 584 584 584 583 583 583 583 583 583 583 583 583 583 583 583 583 583 583 583 583 583 583 584 584 584 584 584 584 584 584 584 584 584 584 584 584 583 583 582 582 582 582 582 582 583 583 584 584 584 586 586 0 0 0 0 0 0 0 0 0 0 0 0 0 0 0 0 0 0 0
0 0 0 0 588 588 589 589 589 589 590 590 590 589 589 589 589 589 588 588 588 588 588 587 587 587 587 587 587 587 587 587 587 587 587 587 587 587 586 586 586 586 586 586 586 586 587 587 587 587 587 587 587 587 587 586 586 586 586 587 587 587 587 587 587 587 587 587 587 587 587 586 586 586 586 586 586 586 586 587 587 587 587 587 587 587 587 587 587 587 587 586 586 586 586 587 587 587 587 588 588 588 588 588 588 588 588 588 0 0 0 0 0 0 0 0 0 0 0 0 0 467 467 468 0 0 0 0 0 0 0 0 0 0 0 0 0 0 0 0 0 0 0 0 0 0 0 0 0 0 0 0 0 0 0 0 0 0 0 0 0 0 0 0 0 0 0 0 0 0 0 0 0 0 0 0 0 0 0 0 0 0 0 0 0 0 0 0 0 0 0 0 0 470 471 471 471 471 471 471 471 471 471 471 471 471 471 471 471 471 471 471 0 0 0 0 0 0 0 0 0 0 0 0 0 0 0 0 0 0 0 0 0 0 0 0 0 0 0 0 0 0 0 0 0 0 0 0 0 0 0 0 0 0 470 470 470 471 471 471 471 471 471 471 471 471 471 471 471 471 471 0 0 0 0 0 0 0 0 0 0 0 0 0 0 0 0 0 0 0 0 0 0 0 0 0 0 0 0 0 0 0 0 0 0 0 0 0 0 0 0 0 0 0 0 0 0 0 0 0 587 587 587 587 587 587 587 587 587 587 587 587 587 587 587 587 587 587 587 587 587 588 588 588 588 588 588 587 587 587 587 586 586 586 586 586 586 586 586 586 586 586 586 586 586 586 586 586 586 586 586 585 585 585 585 585 585 585 585 584 584 584 584 584 584 585 585 585 585 586 586 585 585 585 585 584 584 584 584 584 584 584 584 584 584 584 584 584 584 584 583 583 583 582 582 582 582 582 582 582 582 582 582 582 582 582 582 582 582 582 582 583 583 583 583 583 583 583 583 583 584 584 584 584 584 583 583 582 582 581 581 581 581 581 582 582 583 584 584 585 586 0 0 0 0 0 0 0 0 0 0 0 0 0 0 0 0 0 0 0
0 0 0 0 588 588 588 588 588 589 589 589 589 589 589 589 588 588 588 588 587 587 587 587 586 586 586 586 586 586 587 587 587 587 587 587 586 586 586 586 586 586 585 586 586 586 586 586 586 586 586 586 586 586 586 586 586 586 586 586 586 586 586 586 586 586 586 586 586 586 586 586 586 585 585 585 585 585 586 586 586 586 587 587 587 587 586 586 586 586 586 586 586 585 586 586 586 586 586 587 587 587 588 588 588 588 588 0 0 0 0 0 0 0 0 0 0 0 0 0 466 467 467 468 0 0 0 0 0 0 0 0 0 0 0 0 0 0 0 0 0 0 0 0 0 0 0 0 0 0 0 0 0 0 0 0 0 0 0 0 0 0 0 0 0 0 0 0 0 0 0 0 0 0 0 0 0 0 0 0 0 0 0 0 0 0 0 0 0 0 0 0 0 471 470 470 471 471 471 471 471 471 471 471 471 471 471 471 471 471 471 471 0 0 0 0 0 0 0 0 0 0 0 0 0 0 0 0 0 0 0 0 0 0 0 0 0 0 0 0 0 0 0 0 0 0 0 0 0 0 0 0 0 0 470 470 470 470 470 470 470 470 471 471 471 471 471 471 471 471 470 0 0 0 0 0 0 0 0 0 0 0 0 0 0 0 0 0 0 0 0 0 0 0 0 0 0 0 0 0 0 0 0 0 0 0 0 0 0 0 0 0 0 0 0 0 0 0 0 0 586 586 586 586 586 586 586 587 587 587 586 586 586 586 586 586 586 586 586 587 587 587 587 587 587 587 587 586 586 586 586 586 585 585 585 585 585 585 585 585 585 585 585 585 585 585 585 585 584 584 584 584 584 584 584 584 583 583 584 583 583 583 583 584 584 584 584 584 584 584 584 584 584 584 584 584 584 583 583 583 583 583 583 584 583 583 583 583 583 583 582 582 582 582 581 581 581 581 581 581 581 581 581 582 582 582 582 582 582 582 582 582 582 582 582 582 582 582 582 583 583 583 583 583 583 583 582 582 581 581 580 580 580 581 581 582 582 583 584 585 585 584 0 0 0 0 0 0 0 0 0 0 0 0 0 0 0 0 0 0
0 0 0 0 587 587 587 588 588 588 588 588 588 588 588 588 587 587 587 587 587 586 586 586 586 586 586 586 585 586 586 586 586 586 586 586 586 586 585 585 585 585 585 585 585 585 586 586 586 586 586 585 585 585 584 584 584 584 584 585 585 585 585 585 585 586 586 585 585 585 585 584 584 584 584 584 584 584 584 585 585 586 586 586 586 586 586 586 585 585 585 584 584 584 584 584 585 585 586 586 586 587 587 587 587 587 587 0 0 0 0 0 0 0 0 0 0 0 0 0 466 466 467 468 0 0 0 0 0 0 0 0 0 0 0 0 0 0 0 0 0 0 0 0 0 0 0 0 0 0 0 0 0 0 0 0 0 0 0 0 0 0 0 0 0 0 0 0 0 0 0 0 0 0 0 0 0 0 0 0 0 0 0 0 0 0 0 0 0 0 0 0 0 470 470 470 470 470 470 470 470 470 470 470 470 470 470 470 470 470 470 470 0 0 0 0 0 0 0 0 0 0 0 0 0 0 0 0 0 0 0 0 0 0 0 0 0 0 0 0 0 0 0 0 0 0 0 0 0 0 0 0 0 0 469 469 470 470 470 470 470 470 470 470 470 470 470 470 470 470 470 0 0 0 0 0 0 0 0 0 0 0 0 0 0 0 0 0 0 0 0 0 0 0 0 0 0 0 0 0 0 0 0 0 0 0 0 0 0 0 0 0 0 0 0 0 0 0 0 0 585 585 585 585 585 585 586 586 586 586 586 585 585 585 585 585 585 585 586 586 586 586 586 586 586 586 586 585 585 584 584 584 584 584 584 584 584 584 584 584 584 584 584 584 584 584 584 584 584 583 583 583 583 583 582 582 582 582 582 582 582 582 583 583 583 583 583 583 583 583 583 583 583 583 583 583 583 583 582 582 582 582 583 583 582 582 582 582 582 582 582 581 581 581 581 581 581 581 580 581 581 581 581 581 581 581 581 581 581 581 581 581 581 581 581 581 581 581 582 582 582 582 582 582 582 582 582 581 581 580 579 579 579 580 581 581 582 583 584 584 584 584 0 0 0 0 0 0 0 0 0 0 0 0 0 0 0 0 0 0
0 0 0 0 586 586 587 587 587 587 587 587 587 587 587 587 587 586 586 586 586 586 585 585 584 584 584 584 584 584 585 585 585 585 586 586 585 585 584 584 584 584 584 584 584 584 584 584 584 584 584 584 584 584 584 583 583 584 584 584 584 584 584 584 584 584 584 584 584 584 584 584 584 584 584 584 584 584 584 584 584 584 584 584 585 585 585 584 584 584 584 584 583 583 583 584 584 584 584 585 585 586 586 586 586 586 586 0 0 0 0 0 0 0 0 0 0 0 0 0 466 466 467 467 0 0 0 0 0 0 0 0 0 0 0 0 0 0 0 0 0 0 0 0 0 0 0 0 0 0 0 0 0 0 0 0 0 0 0 0 0 0 0 0 0 0 0 0 0 0 0 0 0 0 0 0 0 0 0 0 0 0 0 0 0 0 0 0 0 0 0 0 0 0 469 469 469 469 469 470 470 470 470 470 470 470 470 470 470 470 470 470 0 0 0 0 0 0 0 0 0 0 0 0 0 0 0 0 0 0 0 0 0 0 0 0 0 0 0 0 0 0 0 0 0 0 0 0 0 0 0 0 0 0 469 469 469 469 469 469 470 470 470 470 470 470 470 470 470 470 470 0 0 0 0 0 0 0 0 0 0 0 0 0 0 0 0 0 0 467 467 0 0 0 0 0 0 0 0 0 0 0 0 0 0 0 0 0 0 0 0 0 0 0 0 0 0 0 0 0 584 584 584 584 584 584 584 584 584 584 584 584 584 584 584 584 584 584 584 584 585 585 585 585 585 584 584 584 584 583 583 583 583 583 583 583 583 583 583 583 583 583 583 583 583 583 583 583 583 583 582 582 582 582 581 581 581 581 581 581 581 582 582 582 582 582 582 582 582 582 582 582 582 582 582 582 582 582 581 581 581 582 582 582 582 581 581 581 581 581 581 580 580 580 580 580 580 580 580 580 580 580 580 580 580 580 580 580 580 580 580 580 580 580 580 580 580 581 581 581 581 581 581 582 582 581 581 581 580 580 579 579 579 579 580 581 582 582 583 584 584 584 584 0 0 0 0 0 0 0 0 0 0 0 0 0 0 0 0 0
0 0 0 0 585 585 586 586 586 586 586 586 586 586 586 586 586 586 585 585 585 584 584 584 584 584 584 584 584 584 584 584 584 584 585 585 584 584 584 584 583 583 583 583 583 583 583 583 583 583 583 583 583 583 583 583 583 583 583 583 583 583 583 583 583 583 583 583 583 583 583 583 583 583 583 583 583 583 583 583 583 583 584 584 584 584 584 584 583 583 583 583 583 583 583 583 583 583 583 584 584 585 585 585 586 586 0 0 0 0 0 0 0 0 0 0 0 0 0 465 465 466 466 0 0 0 0 0 0 0 0 0 0 0 0 0 0 0 0 0 0 0 0 0 0 0 0 0 0 0 0 0 0 0 0 0 0 0 0 0 0 0 0 0 0 0 0 0 0 0 0 0 0 0 0 0 0 0 0 0 0 0 0 0 0 0 0 0 0 0 0 0 0 0 469 469 469 469 469 469 469 469 469 469 469 469 469 469 469 470 470 470 469 0 0 0 0 0 0 0 0 0 0 0 0 0 0 0 0 0 0 0 0 0 0 0 0 0 0 0 0 0 0 0 0 0 0 0 0 0 0 0 0 0 468 468 469 469 469 469 469 469 469 469 469 469 469 469 469 469 469 0 0 0 0 0 0 0 0 0 0 0 0 0 0 0 0 0 0 466 466 0 0 0 0 0 0 0 0 0 0 0 0 0 0 0 0 0 0 0 0 0 0 0 0 0 0 0 0 0 583 583 583 583 583 583 584 584 584 584 584 583 583 583 583 583 583 583 583 584 584 584 584 584 583 583 583 583 583 583 582 582 582 582 582 582 582 582 582 582 582 582 582 582 582 582 582 582 582 582 581 581 581 581 580 580 580 580 580 580 581 581 581 581 581 581 581 581 581 581 581 581 581 581 581 581 581 581 581 581 581 581 581 581 581 581 580 580 580 580 580 580 580 579 579 579 579 579 579 579 579 579 579 579 579 579 579 579 579 579 579 579 579 579 580 580 580 580 580 580 580 580 581 581 581 581 580 580 580 579 579 578 579 579 580 581 581 582 583 584 584 584 584 0 0 0 0 0 0 0 0 0 0 0 0 0 0 0 0 0
0 0 0 0 584 584 584 584 584 585 585 585 585 585 585 585 584 584 584 584 584 583 583 583 583 583 583 583 583 583 583 583 584 584 584 584 584 584 583 583 583 583 583 583 583 583 583 583 583 583 582 582 582 582 582 582 582 582 582 582 582 582 582 582 582 582 582 582 582 582 582 582 582 582 582 582 582 582 582 582 583 583 583 583 583 583 583 583 583 582 582 582 582 582 582 582 582 582 583 583 583 584 584 584 584 585 0 0 0 0 0 0 0 0 0 0 0 0 0 464 465 465 466 0 0 0 0 0 0 0 0 0 0 0 0 0 0 0 0 0 0 0 0 0 0 0 0 0 0 0 0 0 0 0 0 0 0 0 0 0 0 0 0 0 0 0 0 0 0 0 0 0 0 0 0 0 0 0 0 0 0 0 0 0 0 0 0 0 0 0 0 0 0 0 468 468 468 468 468 469 469 469 469 469 469 469 469 469 469 469 469 469 469 0 0 0 0 0 0 0 0 0 0 0 0 0 0 0 0 0 0 0 0 0 0 0 0 0 0 0 0 0 0 0 0 0 0 0 0 0 0 0 0 0 467 468 468 468 468 468 469 469 469 469 469 469 469 469 469 469 468 0 0 0 0 0 0 0 0 0 0 0 0 0 0 0 0 0 0 465 466 0 0 0 0 0 0 0 0 0 0 0 0 0 0 0 0 0 0 0 0 0 0 0 0 0 0 0 0 0 583 582 582 582 582 582 583 583 583 583 583 582 582 582 582 582 582 582 582 583 583 583 583 583 583 582 582 582 582 582 581 581 581 581 581 581 581 581 581 581 581 581 581 581 581 581 581 581 581 581 580 580 580 580 579 579 579 579 579 579 580 580 580 580 580 580 580 580 580 580 580 580 580 580 580 580 580 580 580 580 580 580 580 580 580 580 580 579 579 579 579 579 579 579 579 578 578 578 578 578 579 579 579 578 578 578 578 578 578 578 578 579 579 579 579 579 579 579 579 579 580 580 580 580 580 580 580 579 579 578 578 578 578 579 580 580 581 582 583 583 584 584 584 0 0 0 0 0 0 0 0 0 0 0 0 0 0 0 0 0
0 0 0 0 583 583 583 583 583 584 584 584 584 584 584 584 583 583 583 583 583 583 583 582 582 582 582 582 582 582 582 583 583 583 583 583 583 583 583 583 582 582 582 582 582 582 582 582 582 582 582 581 581 581 581 581 581 581 581 581 581 581 581 581 581 582 582 582 582 582 582 582 582 582 582 582 582 582 582 582 582 582 582 582 582 582 582 582 582 582 581 581 581 581 581 581 581 581 582 582 582 583 583 583 583 0 0 0 0 0 0 0 0 0 0 0 0 0 463 463 464 465 465 0 0 0 0 0 0 0 0 0 0 0 0 0 0 0 0 0 0 0 0 0 0 0 0 0 0 0 0 0 0 0 0 0 0 0 0 0 0 0 0 0 0 0 0 0 0 0 0 0 0 0 0 0 0 0 0 0 0 0 0 0 0 0 0 0 0 0 0 0 0 467 468 468 468 468 468 468 468 468 468 468 468 468 468 468 468 468 468 468 469 0 0 0 0 0 0 0 0 0 0 0 0 0 0 0 0 0 0 0 0 0 0 0 0 0 0 0 0 0 0 0 0 0 0 0 0 0 0 0 0 0 467 467 467 467 468 468 468 468 468 468 468 468 468 468 468 468 468 0 0 0 0 0 0 0 0 0 0 0 0 0 0 0 0 0 465 465 465 0 0 0 0 0 0 0 0 0 0 0 0 0 0 0 0 0 0 0 0 0 0 0 0 0 0 0 0 0 582 582 581 581 581 582 582 582 582 582 582 582 581 581 581 581 581 581 581 582 582 582 582 582 582 581 581 581 581 581 580 580 580 581 581 581 581 581 581 581 581 580 580 581 581 581 580 580 580 580 579 579 579 579 578 578 578 578 578 579 579 579 579 579 579 579 579 579 580 580 579 579 579 579 579 579 579 579 579 579 579 579 579 579 579 579 579 579 579 579 579 578 578 578 578 578 578 578 578 578 578 578 578 578 578 578 578 578 578 578 578 578 578 578 578 578 578 578 579 579 579 579 579 579 579 579 579 579 579 578 578 577 578 578 579 580 581 582 583 583 583 584 584 0 0 0 0 0 0 0 0 0 0 0 0 0 0 0 0 0
0 0 0 0 581 582 582 582 582 582 583 583 583 583 583 583 582 582 582 582 582 582 582 582 582 581 581 581 581 582 582 582 582 582 583 583 583 583 582 582 582 582 582 582 581 581 581 581 581 581 581 581 580 580 580 580 580 580 580 581 581 581 581 581 581 581 581 581 581 581 581 581 581 581 581 581 581 581 581 581 581 581 581 581 581 581 581 581 581 581 581 580 580 580 580 580 580 581 581 581 582 582 582 583 583 0 0 0 0 0 0 0 0 0 0 0 0 0 462 463 464 464 465 0 0 0 0 0 0 0 0 0 0 0 0 0 0 0 0 0 0 0 0 0 0 0 0 0 0 0 0 0 0 0 0 0 0 0 0 0 0 0 0 0 0 0 0 0 0 466 466 0 0 0 0 0 0 0 0 0 0 0 0 0 0 0 0 0 0 0 0 0 0 467 467 467 467 467 467 467 467 467 467 467 467 467 468 468 468 468 468 468 468 0 0 0 0 0 0 0 0 0 0 0 0 0 0 0 0 0 0 0 0 0 0 0 0 0 0 0 0 0 0 0 0 0 0 0 0 0 0 0 0 466 466 466 467 467 467 467 467 467 467 467 467 467 467 467 467 467 0 0 0 0 0 0 0 0 0 0 0 0 0 0 0 0 0 0 465 465 465 0 0 0 0 0 0 0 0 0 0 0 0 0 0 0 0 0 0 0 0 0 0 0 0 0 0 0 0 0 581 581 581 580 581 581 581 581 581 581 581 581 581 580 580 580 580 580 580 581 581 581 581 581 581 580 580 580 580 580 580 580 580 580 580 580 580 580 580 580 580 580 580 580 580 580 580 579 579 579 579 578 578 578 578 577 577 577 578 578 578 578 578 578 579 579 579 579 579 579 579 579 579 579 579 579 579 579 579 578 578 578 578 578 578 578 578 578 578 578 578 578 578 578 578 578 577 577 577 577 577 577 577 577 577 577 577 577 577 577 577 577 577 577 578 578 578 578 578 578 578 578 578 579 579 579 578 578 578 577 577 577 577 578 579 580 581 581 582 583 583 583 583 0 0 0 0 0 0 0 0 0 0 0 0 0 0 0 0 0
0 0 0 0 580 581 581 581 581 581 581 582 582 582 582 582 581 581 581 581 581 581 581 581 581 581 581 581 581 581 581 581 581 582 582 582 582 582 582 582 581 581 581 581 581 581 581 580 580 580 580 580 580 579 580 580 580 580 580 580 580 580 580 580 580 580 580 580 580 580 581 581 581 581 581 581 580 580 580 580 581 581 581 581 581 581 581 581 580 580 580 580 579 579 579 579 580 580 580 580 581 581 581 582 0 0 0 0 0 0 0 0 0 0 0 0 0 0 462 463 463 464 0 0 0 0 0 0 0 0 0 0 0 0 0 0 0 0 0 0 0 0 0 0 0 0 0 0 0 0 0 0 0 0 0 0 0 0 0 0 0 0 0 0 0 0 0 465 465 466 465 466 466 0 0 0 0 0 0 0 0 0 0 0 0 0 0 0 0 0 0 0 0 466 466 466 467 467 467 467 467 467 467 467 467 467 467 467 467 467 467 467 467 0 0 0 0 0 0 0 0 0 0 0 0 0 0 0 0 0 0 0 0 0 0 0 0 0 0 0 0 0 0 0 0 0 0 0 0 0 0 0 0 465 465 466 466 466 466 466 466 466 467 467 467 467 467 467 467 467 0 0 0 0 0 0 0 0 0 0 0 0 0 0 0 0 0 0 464 464 464 464 0 0 0 0 0 0 0 0 0 0 0 0 0 0 0 0 0 0 0 0 0 0 0 0 0 0 0 0 580 580 580 580 580 580 580 580 580 580 580 580 580 580 579 579 579 579 580 580 580 580 580 580 580 579 579 579 579 579 579 579 579 579 579 579 579 579 579 579 579 579 579 579 579 579 579 579 578 578 578 578 577 577 577 577 577 577 577 577 577 577 578 578 578 578 578 578 578 578 578 578 578 578 578 578 578 578 578 578 578 578 578 578 578 578 577 578 577 577 577 577 577 577 577 577 577 577 577 577 577 577 576 576 576 576 576 576 576 576 577 577 577 577 577 577 577 577 578 578 578 578 578 578 578 578 578 577 577 577 576 577 577 577 578 579 580 581 582 582 583 583 583 0 0 0 0 0 0 0 0 0 0 0 0 0 0 0 0 0
0 0 0 0 579 580 580 580 580 580 580 581 581 581 581 581 581 581 581 580 580 580 580 580 580 580 580 580 580 580 580 581 581 581 581 581 581 581 581 581 581 581 581 581 580 580 580 580 579 579 579 579 579 579 579 579 579 579 579 579 579 579 579 579 579 580 580 580 580 580 580 580 580 580 580 580 580 580 580 580 580 580 580 580 580 580 580 580 580 579 579 579 579 579 579 579 579 579 579 580 580 580 580 0 0 0 0 0 0 0 0 0 0 0 0 0 0 0 461 462 463 463 0 0 0 0 0 0 0 0 0 0 0 0 0 0 0 0 0 0 0 0 0 0 0 0 0 0 0 0 0 0 0 0 0 0 0 0 0 0 0 0 0 0 0 0 0 464 464 465 465 465 465 465 0 0 0 0 0 0 0 0 0 0 0 0 0 0 0 0 0 0 0 466 466 466 466 466 466 466 466 466 466 466 466 466 466 466 466 466 466 467 467 0 0 0 0 0 0 0 0 0 0 0 0 0 0 0 0 0 0 0 0 0 0 0 0 0 0 0 0 0 0 0 0 0 0 0 0 0 0 0 0 465 465 465 465 465 466 466 466 466 466 466 466 466 466 466 466 466 0 0 0 0 0 0 0 0 0 0 0 0 0 0 0 0 0 0 464 464 464 464 0 0 0 0 0 0 0 0 0 0 0 0 0 0 0 0 0 0 0 0 0 0 0 0 0 0 0 0 580 579 579 579 579 579 579 579 579 579 579 579 579 579 579 579 579 579 579 579 579 579 579 579 579 579 578 578 578 578 578 578 578 578 578 578 578 578 579 579 579 579 579 579 578 578 578 578 578 577 577 577 576 576 576 576 576 576 576 577 577 577 577 577 577 577 577 577 577 577 577 577 578 577 577 577 577 577 577 577 577 577 577 577 577 577 577 577 577 577 577 577 577 577 577 576 576 576 576 576 576 575 575 575 575 575 575 575 575 575 576 576 576 576 577 577 577 577 577 577 577 577 577 577 577 577 577 577 577 576 575 576 576 577 578 579 580 580 581 582 582 582 583 0 0 0 0 0 0 0 0 0 0 0 0 0 0 0 0 0
0 0 0 0 578 579 579 579 579 579 579 580 580 580 580 580 580 580 580 580 580 579 579 579 579 579 579 579 579 579 580 580 580 580 581 581 581 581 580 580 580 580 580 580 580 579 579 579 579 579 578 578 578 578 578 578 578 578 578 579 579 579 579 579 579 579 579 579 579 579 580 580 580 580 580 580 580 580 579 579 579 579 579 579 579 579 579 579 579 579 579 578 578 578 578 578 578 578 579 579 579 580 580 0 0 0 0 0 0 0 0 0 0 0 0 0 0 461 461 462 462 463 0 0 0 0 0 0 0 0 0 0 0 0 0 0 0 0 0 0 0 0 0 0 0 0 0 0 0 0 0 0 0 0 0 0 0 0 0 0 0 0 0 0 0 0 463 463 464 464 465 465 465 464 464 0 0 0 0 0 0 0 0 0 0 0 0 0 0 0 0 0 0 465 465 465 465 465 465 465 465 465 465 465 465 465 465 466 466 466 466 466 466 0 0 0 0 0 0 0 0 0 0 0 0 0 0 0 0 0 0 0 0 0 0 0 0 0 0 0 0 0 0 0 0 0 0 0 0 0 0 0 0 463 464 464 464 465 465 465 465 465 465 465 465 465 465 465 465 465 0 0 0 0 0 0 0 0 0 0 0 0 0 0 0 0 0 0 463 463 464 463 0 0 0 0 0 0 0 0 0 0 0 0 0 0 0 0 0 0 0 0 0 0 0 0 0 0 0 0 579 579 579 578 578 578 578 578 578 578 578 578 578 578 578 578 578 578 578 578 578 578 578 578 578 578 578 578 578 578 578 578 578 578 578 578 578 578 578 578 578 578 578 578 578 577 577 577 577 577 576 575 575 575 575 575 575 575 575 575 576 576 576 577 577 577 577 577 577 577 577 577 577 577 577 577 577 577 576 576 576 576 576 576 576 575 575 575 576 576 576 576 576 576 576 575 575 575 575 575 575 575 575 575 574 574 574 574 575 575 575 575 575 575 576 576 576 576 576 577 577 577 577 577 577 576 576 576 576 575 575 575 575 576 577 578 579 580 581 581 582 582 582 0 0 0 0 0 0 0 0 0 0 0 0 0 0 0 0 0
0 0 0 0 577 578 578 578 578 578 579 579 579 579 579 579 579 579 579 579 579 579 579 579 578 578 578 579 579 579 579 579 579 580 580 580 580 580 580 580 579 579 579 579 579 579 578 578 578 578 578 578 577 577 577 578 578 578 578 578 578 578 578 578 578 578 578 579 579 579 579 579 579 579 579 579 579 579 579 579 579 579 579 579 579 579 579 578 578 578 578 578 577 577 577 578 578 578 578 578 579 579 0 0 0 0 0 0 0 0 0 0 0 0 0 0 0 460 461 461 462 462 0 0 0 0 0 0 0 0 0 0 0 0 0 0 0 0 0 0 0 0 0 0 0 0 0 0 0 0 0 0 0 0 0 0 0 0 0 0 0 0 0 0 0 461 462 462 463 463 464 464 464 464 463 463 463 0 0 0 0 0 0 0 0 0 0 0 0 0 0 0 0 465 465 465 465 465 465 465 465 465 465 465 465 465 465 465 465 465 465 465 465 0 0 0 0 0 0 0 0 0 0 0 0 0 0 0 0 0 0 0 0 0 0 0 0 0 0 0 0 0 0 0 0 0 0 0 0 0 0 0 0 463 463 463 464 464 464 464 464 464 464 464 464 464 465 465 465 465 0 0 0 0 0 0 0 0 0 0 0 0 0 0 0 0 0 0 463 463 463 463 0 0 0 0 0 0 0 0 0 0 0 0 0 0 462 0 0 0 0 0 0 0 0 0 0 0 0 0 578 578 578 578 578 578 578 578 578 577 577 577 577 577 577 577 577 577 577 577 577 577 577 577 577 577 577 577 577 577 577 577 577 577 577 577 577 577 577 577 577 577 577 577 577 577 577 576 576 575 575 575 574 574 574 574 574 575 575 575 575 575 575 575 575 575 575 575 575 575 576 576 576 576 576 576 576 575 575 575 575 575 575 575 575 575 575 575 575 575 575 575 575 575 575 575 575 575 574 574 574 574 574 574 574 573 573 574 574 574 574 575 575 575 575 575 575 575 575 575 576 576 575 575 575 575 575 575 575 575 574 575 575 575 577 578 579 579 580 581 581 582 582 0 0 0 0 0 0 0 0 0 0 0 0 0 0 0 0 0
0 0 0 0 577 577 577 577 577 577 578 578 578 578 578 578 578 578 578 578 578 578 578 578 578 578 578 578 578 578 578 578 579 579 579 579 579 579 579 579 579 578 578 578 578 578 578 578 577 577 577 577 577 577 577 577 577 577 577 577 577 577 577 578 578 578 578 578 578 578 578 579 579 579 579 579 579 579 578 578 578 578 578 578 578 578 578 578 578 577 577 577 577 577 577 577 577 577 577 578 578 578 0 0 0 0 0 0 0 0 0 0 0 0 0 0 0 460 460 461 462 0 0 0 0 0 0 0 0 0 0 0 0 0 0 0 0 0 0 0 0 0 0 0 0 0 0 0 0 0 0 0 0 0 0 0 0 0 0 0 0 0 0 0 0 461 461 462 462 463 463 463 463 463 463 463 462 461 461 461 0 0 0 0 0 0 0 0 0 0 0 0 0 463 464 464 464 464 464 464 464 464 464 464 464 464 464 464 464 464 464 464 465 0 0 0 0 0 0 0 0 0 0 0 0 0 0 0 0 0 0 0 0 0 0 0 0 0 0 0 0 0 0 0 0 0 0 0 0 0 0 0 0 462 463 463 463 463 463 463 463 463 463 463 463 463 463 464 464 464 0 0 0 0 0 0 0 0 0 0 0 0 0 0 0 0 0 0 462 463 463 463 0 0 0 0 0 0 0 0 0 0 0 0 463 0 462 0 0 0 0 0 0 0 0 0 0 0 0 0 578 577 577 577 577 577 577 577 577 577 577 577 577 576 576 576 576 576 576 576 576 576 576 576 576 576 576 576 576 576 576 576 576 576 576 576 576 576 576 576 576 576 576 576 576 576 575 575 575 575 574 574 574 574 574 574 574 574 574 574 574 575 575 575 575 575 575 575 575 575 575 575 575 575 575 575 575 575 575 574 574 574 574 574 574 574 574 574 574 574 574 574 574 574 574 574 574 574 574 573 573 573 573 573 573 573 573 573 573 574 574 574 574 574 575 575 575 575 575 575 575 575 575 575 575 574 574 574 574 574 574 574 574 575 575 577 578 579 580 580 580 581 581 0 0 0 0 0 0 0 0 0 0 0 0 0 0 0 0 0
0 0 0 0 575 576 576 576 577 577 577 577 577 577 577 577 577 577 577 578 577 577 577 577 577 577 577 577 577 577 578 578 578 578 578 578 578 578 578 578 578 578 577 577 577 577 577 577 577 577 576 576 576 576 576 576 576 577 577 577 577 577 577 577 577 577 577 577 577 578 578 578 578 578 579 578 578 578 578 578 578 577 577 577 577 577 577 577 577 577 577 577 576 576 576 576 577 577 577 577 577 577 0 0 0 0 0 0 0 0 0 0 0 0 0 0 458 459 460 461 461 0 0 0 0 0 0 0 0 0 0 0 0 0 0 0 0 0 0 0 0 0 0 0 0 0 0 0 0 0 0 0 0 0 0 0 0 0 0 0 0 0 0 0 460 460 461 461 462 462 463 463 463 463 462 462 462 461 461 461 0 0 0 0 0 0 0 0 0 0 0 0 463 463 463 463 463 463 463 463 463 463 463 463 463 463 463 463 464 464 464 464 464 0 0 0 0 0 0 0 0 0 0 0 0 0 0 0 0 0 0 0 0 0 0 0 460 459 460 0 0 0 0 0 0 0 0 0 0 0 0 0 461 462 462 462 462 462 462 462 463 463 463 463 463 463 463 463 463 463 0 0 0 0 0 0 0 0 0 0 0 0 0 0 0 0 0 0 462 462 462 462 0 0 0 0 0 0 0 0 0 0 0 0 462 0 462 0 0 0 0 0 0 0 0 0 0 0 0 0 577 577 577 577 576 576 576 576 576 576 575 575 575 575 575 575 575 575 575 575 575 575 575 575 575 575 575 575 575 575 575 575 575 575 575 575 575 575 575 575 575 575 575 575 575 575 575 574 574 574 573 573 573 573 573 573 573 573 574 574 574 574 574 574 574 574 574 574 574 574 574 574 574 574 574 574 0 0 574 574 573 574 573 573 573 573 573 573 574 574 574 574 574 574 574 573 573 573 573 573 573 572 572 572 572 572 572 572 573 573 573 574 574 574 574 574 574 574 574 574 574 574 574 574 574 574 574 574 574 573 573 573 574 574 575 576 577 578 578 580 580 580 581 0 0 0 0 0 0 0 0 0 0 0 0 0 0 0 0 0
0 0 0 0 575 575 575 575 575 575 576 576 576 576 576 576 577 577 577 577 577 577 577 577 576 576 576 576 576 576 577 577 577 577 577 577 577 577 577 577 577 577 577 577 577 576 576 576 576 576 575 575 575 575 575 575 575 575 576 576 576 576 576 576 576 577 577 577 577 577 577 578 578 578 578 578 578 577 577 577 577 577 577 577 577 576 576 576 576 576 576 575 575 575 575 575 576 576 576 576 577 577 0 0 0 0 0 0 0 0 0 0 0 0 0 0 458 459 459 460 461 0 0 0 0 0 0 0 0 0 0 0 0 0 0 0 0 0 0 0 0 0 0 0 0 0 0 0 0 0 0 0 0 0 0 0 0 0 0 0 0 0 0 0 459 460 461 461 462 462 462 462 462 462 462 462 461 461 461 460 460 0 0 0 0 0 0 0 0 462 462 462 462 462 462 462 463 463 463 463 463 463 463 463 463 463 463 463 463 463 463 463 463 0 0 0 0 0 0 0 0 0 0 0 0 0 0 0 0 0 0 0 0 0 459 459 459 459 459 459 459 0 0 0 0 0 0 0 0 0 0 0 461 461 462 462 462 462 462 462 462 462 462 462 462 462 462 462 462 462 0 0 0 0 0 0 0 0 0 0 0 0 0 0 0 0 0 0 462 462 462 462 0 0 0 0 0 0 0 0 0 0 0 0 462 0 462 0 0 0 0 0 0 0 0 0 0 0 0 0 576 576 576 575 575 575 575 575 575 575 575 575 575 575 574 574 574 574 574 574 574 574 574 574 574 574 574 574 575 575 575 575 575 575 575 575 574 574 574 575 575 575 575 574 574 574 574 574 573 573 573 573 572 572 572 573 573 573 573 573 573 573 574 574 573 573 573 573 573 573 573 573 574 573 573 573 573 573 573 573 573 573 573 573 573 573 573 573 573 573 573 573 573 573 573 573 573 572 572 572 572 571 571 571 571 571 571 572 572 572 573 573 573 573 574 574 574 574 573 573 573 573 573 573 573 573 573 573 573 573 572 573 573 573 574 575 576 577 578 579 579 580 580 0 0 0 0 0 0 0 0 0 0 0 0 0 0 0 0 0
0 0 0 0 574 574 574 574 575 575 575 575 575 575 575 575 575 575 575 576 576 576 575 575 575 575 575 575 575 575 575 576 577 577 577 577 577 576 576 576 576 575 575 575 575 575 575 575 575 575 575 574 574 574 575 575 575 575 575 575 575 575 575 575 575 575 575 576 576 576 577 577 577 577 577 577 577 577 577 576 576 576 575 575 575 575 575 575 575 575 575 575 575 575 575 575 575 575 575 575 576 0 0 0 0 0 0 0 0 0 0 0 0 0 0 0 458 458 459 460 460 0 0 0 0 0 0 0 0 0 0 0 0 0 0 0 0 0 0 0 0 0 0 0 0 0 0 0 0 0 0 0 0 0 0 0 0 0 0 0 0 0 0 459 459 460 460 461 461 461 462 462 462 462 462 461 461 461 460 460 460 460 460 460 460 460 0 0 461 461 462 461 462 462 462 462 462 462 462 462 462 462 462 462 462 462 462 462 462 462 463 463 463 0 0 0 0 0 0 0 0 0 0 0 0 0 0 0 0 0 0 0 0 459 459 459 459 459 459 459 459 0 0 0 0 0 0 0 0 0 0 461 460 461 461 461 461 461 461 461 461 461 461 461 461 462 462 462 462 462 0 0 0 0 0 0 0 0 0 0 0 0 0 0 0 0 0 0 461 461 461 462 0 0 0 0 0 0 0 0 0 0 0 0 462 0 461 0 0 0 0 0 0 0 0 0 0 0 0 0 575 575 575 575 575 575 575 575 574 574 574 574 574 574 574 574 574 574 574 574 573 573 573 573 573 573 574 574 574 574 574 574 574 574 574 574 574 574 574 574 574 574 574 574 574 573 573 573 573 572 572 572 572 572 572 572 572 572 573 573 573 573 573 573 573 573 573 573 573 573 573 573 573 572 572 572 573 572 572 572 572 572 572 572 572 572 572 572 572 572 572 572 572 572 572 572 572 572 572 571 571 571 570 570 570 571 571 571 571 572 572 573 573 573 573 573 573 573 573 573 573 573 572 572 572 572 572 572 572 572 572 572 572 572 573 574 575 576 577 578 578 579 0 0 0 0 0 0 0 0 0 0 0 0 0 0 0 0 0 0
0 0 0 0 573 574 574 574 574 574 574 574 574 574 574 574 574 575 575 575 575 575 575 575 574 574 574 574 574 574 575 575 575 575 575 575 575 575 575 575 575 575 575 575 575 574 574 574 574 574 574 574 574 574 574 574 574 574 574 574 574 574 574 575 575 575 575 575 575 575 576 577 577 577 577 577 577 576 576 575 575 575 575 574 574 574 574 574 574 574 574 574 574 574 574 574 574 574 575 575 575 0 0 0 0 0 0 0 0 0 0 0 0 0 0 456 457 458 459 459 460 0 0 0 0 0 0 0 0 0 0 0 0 0 0 0 0 0 0 0 0 0 0 0 0 0 0 0 0 0 0 0 0 0 0 0 0 0 0 0 0 0 0 458 459 459 460 460 460 461 461 461 461 461 461 461 461 460 460 460 460 459 459 460 460 460 0 0 460 461 461 461 461 461 461 461 461 461 461 461 461 461 461 462 462 462 462 462 462 462 462 462 462 0 0 0 0 0 0 0 0 0 0 0 0 0 0 0 0 0 0 458 458 459 459 459 459 459 459 459 459 459 459 459 459 459 0 0 459 460 460 460 460 460 460 461 461 461 461 461 461 461 461 461 461 461 461 461 461 461 0 0 0 0 0 0 0 0 0 0 0 0 0 0 0 0 0 0 460 461 461 461 0 0 0 0 0 0 0 0 0 0 0 0 461 0 461 0 0 0 0 0 0 0 0 0 0 0 0 0 574 574 574 574 574 574 574 574 574 574 573 573 573 573 573 573 573 573 573 573 573 573 573 573 573 573 573 573 573 574 574 574 574 574 573 573 573 573 573 573 573 573 573 573 573 573 572 572 572 571 571 571 571 571 571 571 571 572 572 572 572 572 572 572 572 572 572 572 572 572 572 572 572 572 572 572 572 572 572 571 571 572 572 572 572 572 572 572 572 572 572 572 572 572 572 571 571 571 571 570 570 570 570 570 570 570 570 570 571 571 572 572 572 572 572 572 572 572 572 572 572 572 572 571 571 571 571 571 571 571 571 571 571 571 572 573 574 575 575 577 578 578 0 0 0 0 0 0 0 0 0 0 0 0 0 0 0 0 0 0
0 0 0 0 573 573 573 573 573 574 574 574 574 574 574 574 574 574 574 574 574 574 574 574 574 574 574 574 574 574 574 574 575 575 575 575 575 575 574 574 574 574 574 574 574 574 574 574 574 574 573 573 573 573 573 573 573 574 574 574 574 574 574 574 574 574 574 574 574 575 575 575 575 576 576 576 576 575 575 575 575 574 574 574 573 573 573 573 573 573 574 574 574 574 574 574 574 574 574 574 574 0 0 0 0 0 0 0 0 0 0 0 0 0 0 457 457 458 458 459 0 0 0 0 0 0 0 0 0 0 0 0 0 0 0 0 0 0 0 0 0 0 0 0 0 0 0 0 0 0 0 0 0 0 0 0 0 0 0 0 0 0 0 458 458 459 459 459 460 460 461 461 461 461 461 460 460 460 460 459 459 459 459 459 459 460 460 460 460 460 460 460 460 461 461 461 461 461 461 461 461 461 461 461 461 461 461 461 461 461 461 461 462 0 0 0 0 0 0 0 0 0 0 0 0 0 0 0 0 0 0 458 458 458 459 459 459 459 459 458 458 458 458 458 458 458 458 0 459 459 459 460 460 460 460 460 460 460 460 460 460 460 460 460 460 460 460 460 461 461 0 0 0 0 0 0 0 0 0 0 0 0 0 0 0 0 0 0 0 460 460 461 0 0 0 0 0 0 0 0 0 0 0 0 0 0 0 0 0 0 0 0 0 0 0 0 0 0 0 0 574 574 574 574 574 574 573 573 573 573 573 573 572 572 572 572 572 572 572 572 572 572 572 572 572 572 572 573 573 573 573 573 573 573 573 573 573 572 572 572 572 572 572 572 572 572 572 571 571 571 571 570 570 570 570 570 571 571 571 571 572 572 572 572 572 572 572 571 571 571 571 571 571 571 571 571 571 571 571 571 571 571 571 571 571 571 571 571 571 571 571 571 571 571 571 571 570 570 570 569 569 569 569 569 569 569 569 570 570 571 571 571 572 572 572 572 572 572 571 571 571 571 571 570 570 570 570 570 570 570 570 570 570 570 571 572 572 573 574 575 577 0 0 0 0 0 0 0 0 0 0 0 0 0 0 0 0 0 0 0
0 0 0 0 572 572 573 573 573 573 573 573 573 573 573 573 573 573 573 573 573 573 573 573 573 573 573 573 573 573 573 574 574 574 574 574 574 574 574 573 573 573 573 573 573 573 573 573 573 573 573 573 573 573 573 573 573 573 573 573 573 573 573 573 573 573 573 574 574 574 575 575 575 575 575 575 575 575 574 574 574 573 573 573 573 573 573 573 573 573 573 573 573 573 573 573 573 573 573 573 574 0 0 0 0 0 0 0 0 0 0 0 0 0 0 456 457 457 458 459 0 0 0 0 0 0 0 0 0 0 0 0 0 0 0 0 0 0 0 0 0 0 0 0 0 0 0 0 0 0 0 0 0 0 0 0 0 0 0 0 0 0 0 458 458 458 459 459 459 460 460 460 460 460 460 460 459 459 459 459 459 0 0 459 459 459 0 459 459 460 460 460 460 460 460 460 460 460 460 460 460 460 460 460 460 460 460 460 460 461 461 461 461 0 0 0 0 0 0 0 0 0 0 0 0 0 0 0 0 0 457 458 458 458 458 458 458 458 458 458 458 458 458 458 458 458 0 0 459 459 459 459 459 460 460 460 460 460 460 460 460 460 460 460 460 460 460 460 460 460 460 0 0 0 0 0 0 0 0 0 0 0 0 0 0 0 0 0 0 460 460 460 0 0 0 0 0 0 0 0 0 0 0 0 0 0 0 0 0 0 0 0 0 0 0 0 0 0 0 0 573 573 573 573 573 573 573 573 572 572 572 572 572 571 571 571 571 571 571 571 571 571 571 571 572 572 572 572 572 572 573 573 573 572 572 572 572 572 572 571 571 571 571 571 571 571 571 571 571 570 570 570 570 570 570 570 570 570 571 571 571 571 571 571 571 571 571 571 571 570 570 570 571 571 571 571 571 571 571 571 571 570 570 570 570 570 571 571 571 571 571 571 571 570 570 570 569 569 569 569 568 568 568 568 568 568 569 569 570 570 571 571 571 571 571 571 571 571 571 570 570 570 570 569 569 569 569 569 569 569 569 569 569 570 570 571 571 572 572 574 575 0 0 0 0 0 0 0 0 0 0 0 0 0 0 0 0 0 0 0
0 0 0 0 571 572 572 572 572 572 572 572 572 572 572 572 572 572 572 573 573 573 573 573 572 572 572 573 573 573 573 573 573 573 573 573 573 573 573 573 572 572 572 572 572 572 573 573 573 573 573 572 572 572 572 572 572 572 572 572 572 572 572 573 573 573 573 573 573 574 574 574 574 574 574 574 574 574 574 573 573 573 572 572 572 572 572 572 572 572 572 572 572 572 572 573 573 573 573 573 573 0 0 0 0 0 0 0 0 0 0 0 0 0 0 456 456 457 457 458 0 0 0 0 0 0 0 0 0 0 0 0 0 0 0 0 0 0 0 0 0 0 0 0 0 0 0 0 0 0 0 0 0 0 0 0 0 0 0 0 0 0 457 457 457 458 458 459 459 459 460 460 460 460 460 459 459 459 459 459 459 0 0 0 459 459 0 0 459 459 459 459 459 459 459 459 460 460 460 460 460 460 460 460 460 460 460 460 460 460 460 461 461 0 0 0 0 0 0 0 0 0 0 0 0 0 0 0 0 0 457 457 457 458 458 458 458 458 458 458 458 458 458 458 458 458 0 0 458 459 459 459 459 459 459 459 459 459 459 459 459 459 459 459 459 459 459 459 459 459 459 0 0 0 0 0 0 0 0 0 0 0 0 0 0 0 0 0 0 459 459 459 0 0 0 0 0 0 0 0 0 0 0 0 0 0 0 0 0 0 0 0 0 0 0 0 0 0 0 572 572 573 573 573 573 572 572 572 572 572 571 571 571 571 571 571 571 571 571 571 571 571 571 571 571 571 571 571 572 572 572 572 572 572 572 571 571 571 571 571 571 571 571 571 571 570 570 570 570 570 569 569 569 569 569 569 569 570 570 570 570 571 571 571 571 571 570 570 570 570 570 570 570 570 570 570 570 570 570 570 570 570 570 570 570 570 570 570 570 570 570 570 570 570 569 569 569 568 568 568 568 567 567 567 567 568 568 569 569 570 570 570 570 570 570 570 570 570 570 569 569 569 569 568 568 568 568 568 569 569 568 569 569 569 569 569 569 570 571 572 0 0 0 0 0 0 0 0 0 0 0 0 0 0 0 0 0 0 0 0
0 0 0 0 571 571 571 571 572 572 572 572 572 572 572 572 572 572 572 572 572 572 572 572 572 572 572 572 572 572 572 572 573 573 573 573 572 572 572 572 572 572 572 572 572 572 572 572 572 572 572 572 572 572 571 571 572 572 572 572 572 572 572 572 572 572 572 572 573 573 573 574 574 574 574 574 573 573 573 573 572 572 572 571 571 571 571 571 572 572 572 572 572 572 572 572 572 572 572 572 572 0 0 0 0 0 0 0 0 0 0 0 0 0 455 455 456 457 457 458 0 0 0 0 0 0 0 0 0 0 0 0 0 0 0 0 0 0 0 0 0 0 0 0 0 0 0 0 0 0 0 0 0 0 0 0 0 0 0 0 0 0 456 457 457 457 458 458 458 459 459 459 459 459 459 459 459 458 458 458 458 0 0 0 0 0 0 0 0 0 0 458 459 459 459 459 459 459 459 459 459 459 459 459 459 459 459 459 459 460 460 460 460 0 0 0 0 0 0 0 0 0 0 0 0 0 0 0 0 457 457 457 457 457 457 458 458 458 458 458 458 458 0 0 0 0 0 0 0 0 0 458 459 459 459 459 459 459 459 459 459 459 459 459 459 459 459 459 459 459 458 0 0 0 0 0 0 0 0 0 0 0 0 0 0 0 0 0 0 459 459 459 0 0 0 0 0 0 0 0 0 0 0 0 0 0 0 0 0 0 0 0 0 0 0 0 0 0 0 571 572 572 572 572 572 572 572 571 571 571 571 571 570 570 570 570 570 570 570 570 570 570 570 570 570 571 571 571 571 571 571 571 571 571 571 571 571 571 570 570 570 570 570 570 570 570 570 570 569 569 569 569 569 568 568 569 569 569 569 569 570 570 570 570 570 570 570 569 569 569 569 569 569 569 569 569 570 570 569 569 569 569 569 569 569 569 569 569 569 569 569 569 569 569 568 568 568 568 567 567 567 567 567 567 567 567 568 568 568 569 569 569 569 570 570 569 569 569 569 568 568 568 568 567 567 567 567 567 568 568 568 568 568 567 568 568 568 568 569 0 0 0 0 0 0 0 0 0 0 0 0 0 0 0 0 0 0 0 0 0
0 0 0 0 570 570 571 571 571 571 571 571 571 571 571 571 571 571 571 571 571 571 571 571 571 571 571 572 572 572 572 572 572 572 572 572 572 571 571 571 571 571 571 571 571 571 571 572 572 572 572 571 571 571 571 571 571 571 571 571 571 571 571 571 571 571 572 572 572 572 573 573 573 573 573 573 573 572 572 572 571 571 571 570 570 570 570 571 571 571 571 571 571 571 571 571 571 571 571 571 0 0 0 0 0 0 0 0 0 0 0 0 0 0 455 455 456 456 456 0 0 0 0 0 0 0 0 0 0 0 0 0 0 0 0 0 0 0 0 0 0 0 0 0 0 0 0 0 0 0 0 0 0 0 0 0 0 0 0 0 0 0 456 456 457 457 457 458 458 458 458 459 459 459 458 458 458 458 457 457 0 0 0 0 0 0 0 0 0 0 0 458 458 458 458 458 458 458 458 459 459 459 459 459 459 459 459 459 459 459 459 459 460 0 0 0 0 0 0 0 0 0 0 0 0 0 0 0 0 456 456 456 456 457 457 457 457 457 457 457 457 457 0 0 0 0 0 0 0 0 0 0 458 458 458 458 458 458 458 458 458 458 458 458 458 458 458 458 458 458 458 0 0 0 0 0 0 0 0 0 0 0 0 0 0 0 0 0 0 458 458 458 0 0 0 0 0 0 0 0 0 0 0 0 0 0 0 0 0 0 0 0 0 0 0 0 0 0 0 571 571 571 572 572 571 571 571 571 571 570 570 570 570 570 570 570 570 570 570 570 570 570 570 570 570 570 570 570 570 571 571 571 571 571 571 570 570 570 570 570 570 569 569 569 569 569 569 569 569 569 568 568 568 568 568 568 568 568 568 569 569 569 569 569 569 569 569 569 569 569 569 569 569 569 569 569 569 569 569 569 569 569 569 569 569 569 569 569 569 568 568 568 568 568 567 567 567 567 567 566 566 566 566 566 566 567 567 567 568 568 568 568 568 569 569 568 568 568 568 567 567 567 567 566 566 566 566 567 567 567 567 567 567 566 567 567 567 567 0 0 0 0 0 0 0 0 0 0 0 0 0 0 0 0 0 0 0 0 0 0
0 0 0 0 569 570 570 570 570 570 570 570 570 570 570 570 570 570 570 570 571 571 571 571 571 571 571 571 571 571 571 571 571 571 571 571 571 571 571 571 571 570 571 571 571 571 571 571 571 571 571 571 571 571 570 570 570 570 570 570 570 570 570 571 571 571 571 571 571 572 572 572 573 573 572 572 572 572 571 571 570 570 570 570 569 570 570 570 570 570 570 570 570 570 571 571 571 571 571 571 0 0 0 0 0 0 0 0 0 0 0 0 0 0 455 455 455 456 457 0 0 0 0 0 0 0 0 0 0 0 0 0 0 0 0 0 0 0 0 0 0 0 0 0 0 0 0 0 0 0 0 0 0 0 0 0 0 0 0 0 0 0 456 456 456 457 457 457 458 458 458 458 458 458 458 458 0 0 457 457 0 0 0 0 0 0 0 0 0 0 0 0 457 458 458 458 458 458 458 458 458 458 458 458 458 458 458 458 458 458 458 459 459 0 0 0 0 0 0 0 0 0 0 0 0 0 0 0 0 455 456 456 456 456 456 456 457 457 457 457 457 457 0 0 0 0 0 0 0 0 0 0 458 458 458 458 458 458 458 457 457 458 458 458 458 458 458 458 458 457 0 0 0 0 0 0 0 0 0 0 0 0 0 0 0 0 0 0 0 457 457 457 0 0 0 0 0 0 0 0 0 0 0 0 0 0 0 0 0 0 0 0 0 0 0 0 0 0 0 570 570 571 571 571 571 571 570 570 570 570 569 569 569 569 569 569 569 569 569 569 569 569 569 569 569 569 569 569 570 570 570 570 570 570 570 570 570 569 569 569 569 569 568 568 568 568 568 568 568 568 568 567 567 567 567 567 567 567 568 568 568 568 568 568 568 568 568 568 568 568 568 568 568 568 568 568 568 568 568 568 568 568 568 568 568 568 568 568 568 568 567 567 567 567 567 566 566 566 566 566 566 565 566 566 566 566 566 566 567 567 567 567 567 567 567 567 567 567 567 566 566 566 566 565 565 565 565 566 566 566 566 566 566 565 565 565 566 565 0 0 0 0 0 0 0 0 0 0 0 0 0 0 0 0 0 0 0 0 0 0
0 0 0 0 569 569 569 569 569 569 569 569 569 569 569 569 569 569 569 569 570 570 570 570 570 570 570 571 571 571 571 571 571 571 571 571 570 570 570 570 570 570 570 570 570 570 570 571 571 571 571 570 570 570 570 570 570 570 570 570 570 570 570 570 570 570 570 571 571 571 572 572 572 572 572 571 571 570 570 570 569 569 569 569 569 569 569 569 569 570 570 570 570 570 570 570 570 570 570 570 0 0 0 0 0 0 0 0 0 0 0 0 0 0 455 455 455 456 456 0 0 0 0 0 0 0 0 0 0 0 0 0 0 0 0 0 0 0 0 0 0 0 0 0 0 0 0 0 0 0 0 0 0 0 0 0 0 0 0 0 0 455 455 456 456 456 456 457 457 457 457 458 458 458 457 457 0 0 456 456 0 0 0 0 0 0 0 0 0 0 0 0 457 457 457 457 457 457 457 457 457 457 457 457 457 457 457 458 458 458 458 458 459 0 0 0 0 0 0 0 0 0 0 0 0 0 0 0 455 455 455 455 455 456 456 456 456 456 456 456 456 0 0 0 0 0 0 0 0 0 0 0 457 457 457 457 457 457 457 457 457 457 457 457 457 457 457 457 457 457 0 0 0 0 0 0 0 0 0 0 0 0 0 0 0 0 0 0 0 0 456 0 0 0 0 0 0 0 0 0 0 0 0 0 0 0 0 0 0 0 0 0 0 0 0 0 0 0 0 570 570 570 570 570 570 570 570 569 569 569 569 568 568 568 568 568 568 568 568 568 568 568 568 568 568 568 568 569 569 569 569 569 569 569 569 569 569 568 568 568 568 568 568 568 568 568 568 568 568 568 567 567 567 567 567 566 567 567 567 567 567 567 567 567 567 567 567 567 567 567 567 567 567 567 567 567 567 567 568 568 568 568 567 567 567 567 567 567 567 567 566 566 566 566 566 565 565 565 565 565 565 565 565 565 565 565 565 565 566 566 566 566 566 566 566 566 566 566 566 566 565 565 565 565 565 565 565 565 565 565 565 565 565 565 564 564 564 564 0 0 0 0 0 0 0 0 0 0 0 0 0 0 0 0 0 0 0 0 0 0
0 0 0 0 568 568 568 568 568 569 569 569 568 568 568 568 568 568 568 569 569 569 570 570 570 570 570 570 570 570 570 570 570 570 570 570 570 570 569 569 569 569 569 569 570 570 570 570 570 570 570 570 569 569 569 569 569 569 569 569 569 569 569 569 569 570 570 570 570 571 571 571 571 571 571 570 570 569 569 569 568 568 568 568 568 568 568 568 569 569 569 569 569 569 569 569 569 569 569 569 0 0 0 0 0 0 0 0 0 0 0 0 0 0 454 455 455 455 0 0 0 0 0 0 0 0 0 0 0 0 0 0 0 0 0 0 0 0 0 0 0 0 0 0 0 0 0 0 0 0 0 0 0 0 0 0 0 0 0 0 0 455 455 455 455 456 456 456 456 457 456 457 457 457 457 456 0 0 456 456 0 0 0 0 0 0 0 0 0 0 0 0 456 456 456 457 457 457 457 457 457 457 457 457 457 457 457 457 457 457 457 458 0 0 0 0 0 0 0 0 0 0 0 0 0 0 0 0 455 455 455 455 0 455 455 455 455 456 456 456 456 0 0 0 0 0 0 0 0 0 0 0 0 457 457 456 456 456 456 456 456 456 456 456 456 456 456 456 456 456 0 0 0 0 0 0 0 0 0 0 0 0 0 0 0 0 0 0 0 0 456 0 0 0 0 0 0 0 0 0 0 0 0 0 0 0 0 0 0 0 0 0 0 0 0 0 0 0 0 569 569 569 569 569 569 569 569 568 568 568 568 568 568 568 568 568 568 567 567 567 567 567 568 567 567 568 568 568 568 568 568 568 569 569 568 568 568 568 568 567 567 567 567 567 567 567 567 567 567 567 567 566 566 566 566 566 566 566 566 566 566 566 566 566 566 566 566 566 566 566 566 566 566 567 567 567 567 567 567 567 567 567 567 567 566 566 566 566 566 566 565 565 565 565 565 565 565 565 565 565 564 564 564 564 564 564 564 565 565 565 565 565 565 565 565 565 565 565 565 565 565 564 564 564 564 564 564 564 564 564 564 564 564 564 564 564 563 563 0 0 0 0 0 0 0 0 0 0 0 0 0 0 0 0 0 0 0 0 0 0
0 0 0 0 567 567 567 567 567 568 568 568 568 567 567 567 567 567 568 568 568 569 569 569 569 569 569 570 570 570 570 570 570 569 569 569 569 569 569 568 568 568 568 569 569 569 569 569 569 569 569 569 569 569 568 568 568 568 568 568 568 568 568 569 569 569 569 570 570 570 570 570 570 570 570 569 569 568 568 567 567 567 567 567 567 567 567 568 568 568 568 568 568 568 568 568 568 568 568 568 0 0 0 0 0 0 0 0 0 0 0 0 0 0 454 454 455 455 0 0 0 0 0 0 0 0 0 0 0 0 0 0 0 0 0 0 0 0 0 0 0 0 0 0 0 0 0 0 0 0 0 0 0 0 0 0 0 0 0 0 0 454 455 455 455 455 455 456 456 456 456 456 456 456 456 456 0 455 455 455 0 0 0 0 0 0 0 0 0 0 0 0 455 456 456 456 456 456 456 456 456 456 456 456 456 456 456 456 456 457 457 457 0 0 0 0 0 0 0 0 0 0 0 0 0 0 0 0 454 454 454 454 0 455 455 455 455 455 455 455 455 0 0 0 0 0 0 0 0 0 0 0 0 456 456 456 456 456 456 456 456 456 456 456 456 456 456 456 456 456 0 0 0 0 0 0 0 0 0 0 0 0 0 0 0 0 0 0 0 0 455 455 0 0 0 0 0 0 0 0 0 0 0 0 0 0 0 0 0 0 0 0 0 0 0 0 0 0 0 568 568 568 568 568 568 568 568 567 567 567 567 567 567 567 567 567 567 567 567 567 567 567 567 567 567 567 567 567 567 567 568 568 568 568 568 568 567 567 567 567 566 566 566 566 566 566 566 566 566 566 566 566 566 565 565 565 565 565 565 565 565 565 565 565 565 565 565 566 566 566 566 566 566 566 566 566 566 566 566 566 566 566 566 566 566 565 565 565 565 565 565 564 564 564 564 564 564 564 564 564 564 564 564 564 564 564 564 564 564 564 564 564 564 564 564 564 564 564 564 564 564 564 563 563 563 563 563 563 563 563 563 563 563 563 563 563 562 562 0 0 0 0 0 0 0 0 0 0 0 0 0 0 0 0 0 0 0 0 0 0
0 0 0 0 566 566 566 566 567 567 567 567 567 566 566 566 566 567 567 567 567 568 568 568 568 569 569 569 569 569 569 569 569 569 569 568 568 568 568 568 567 567 568 568 568 568 568 569 568 568 568 568 568 568 568 568 568 568 567 567 567 567 568 568 568 568 569 569 569 569 570 570 569 569 569 568 567 567 567 566 566 566 566 566 566 566 567 567 567 567 567 567 567 567 567 567 567 567 567 567 0 0 0 0 0 0 0 0 0 0 0 0 0 0 454 454 454 455 0 0 0 0 0 0 0 0 0 0 0 0 0 0 0 0 0 0 0 0 0 0 0 0 0 0 0 0 0 0 0 0 0 0 0 0 0 0 0 0 0 0 0 454 454 455 455 455 455 455 455 456 455 456 455 456 0 0 455 455 454 0 0 0 0 0 0 0 0 0 0 0 0 0 455 455 455 455 455 455 455 455 455 455 455 455 455 455 456 456 456 456 456 456 0 0 0 0 0 0 0 0 0 0 0 0 0 0 0 454 454 454 454 454 454 454 454 454 454 455 455 455 455 0 0 0 0 0 0 0 0 0 0 0 0 455 455 455 455 455 455 455 455 455 455 455 455 455 455 455 455 455 0 0 0 0 0 0 0 0 0 0 0 0 0 0 0 0 0 0 0 0 455 455 0 0 0 0 0 0 0 0 0 0 0 0 0 0 0 0 0 0 0 0 0 0 0 0 0 0 0 567 567 567 567 567 567 567 566 566 566 566 566 566 566 566 566 566 566 566 566 566 566 566 566 566 566 566 566 566 566 567 567 567 567 567 567 567 567 566 566 566 566 566 565 565 566 566 566 566 566 566 566 565 565 565 565 564 564 564 564 564 564 564 564 564 564 564 565 565 565 565 565 565 565 565 565 565 565 566 566 565 565 565 565 565 565 565 564 564 564 564 564 563 563 563 563 563 563 563 563 563 563 563 563 563 563 563 563 563 563 563 563 563 563 563 563 563 563 563 563 563 563 563 563 562 562 562 562 562 562 562 562 563 563 562 562 562 562 562 0 0 0 0 0 0 0 0 0 0 0 0 0 0 0 0 0 0 0 0 0 0
0 0 0 0 565 565 565 566 566 566 566 566 566 566 566 565 566 566 566 566 567 567 567 567 568 568 568 568 568 568 568 568 568 568 568 568 567 567 567 567 567 567 567 567 567 567 568 568 568 568 568 568 567 567 567 567 567 567 567 567 566 567 567 567 567 567 568 568 568 569 569 569 568 568 568 567 566 566 565 565 565 565 565 565 565 565 566 566 566 566 566 566 566 566 566 566 566 566 566 567 0 0 0 0 0 0 0 0 0 0 0 0 0 453 454 454 454 454 0 0 0 0 0 0 0 0 0 0 0 0 0 0 0 0 0 0 0 0 0 0 0 0 0 0 0 0 0 0 0 0 0 0 0 0 0 0 0 0 0 0 453 454 454 454 454 455 455 455 455 455 455 455 455 455 0 0 454 454 454 0 0 0 0 0 0 0 0 0 0 0 0 0 454 455 455 455 455 455 455 455 455 455 455 455 455 455 455 455 455 455 456 455 0 0 0 0 0 0 0 0 0 0 0 0 0 0 0 454 453 453 453 453 453 453 453 453 454 454 454 454 454 0 0 0 0 0 0 0 0 0 0 0 0 455 455 455 455 455 455 455 455 455 455 455 455 455 455 455 455 455 0 0 0 0 0 0 0 0 0 0 0 0 0 0 0 0 0 0 0 0 454 454 0 0 0 0 0 0 0 0 0 0 0 0 0 0 0 0 0 0 0 0 0 0 0 0 0 0 0 566 566 566 566 566 566 566 565 565 565 565 565 565 565 565 565 565 565 565 565 565 565 565 565 565 565 565 565 565 566 566 566 566 566 566 566 566 566 566 565 565 565 565 565 565 565 565 565 565 565 565 565 565 564 564 564 564 564 564 563 563 563 563 564 564 563 563 564 564 564 564 564 564 564 565 565 565 565 565 565 565 565 565 565 564 564 564 563 563 563 563 563 562 562 562 562 562 563 563 563 563 563 563 563 563 563 563 563 563 563 563 563 562 562 562 562 562 562 562 562 562 562 562 562 562 562 562 562 562 562 562 562 562 562 562 561 561 561 561 0 0 0 0 0 0 0 0 0 0 0 0 0 0 0 0 0 0 0 0 0 0
0 0 0 0 564 564 565 565 565 565 565 565 565 565 565 565 565 565 565 566 566 566 566 567 567 567 567 567 567 567 567 567 567 567 567 567 567 566 566 566 566 566 566 566 566 567 567 567 567 567 567 567 566 566 566 566 566 566 566 566 566 566 566 566 566 567 567 567 567 568 568 568 567 567 567 566 565 565 564 564 564 564 564 564 564 564 565 565 565 565 565 565 565 565 565 565 565 565 566 0 0 0 0 0 0 0 0 0 0 0 0 0 0 453 453 453 453 453 0 0 0 0 0 0 0 0 0 0 0 0 0 0 0 0 0 0 0 0 0 0 0 0 0 0 0 0 0 0 0 0 0 0 0 0 0 0 0 0 0 0 453 453 453 454 454 454 454 454 455 455 455 455 455 454 454 454 453 453 453 0 0 0 0 0 0 0 0 0 0 0 0 0 454 454 454 454 454 454 454 454 454 454 454 454 454 455 455 455 455 455 455 455 0 0 0 0 0 0 0 0 0 0 0 0 0 0 0 453 453 453 453 453 453 453 453 453 453 453 453 454 454 0 0 0 0 0 0 0 0 0 0 0 454 454 454 454 454 454 454 454 454 454 454 454 454 454 454 455 455 454 0 0 0 0 0 0 0 0 0 0 0 0 0 0 0 0 0 0 0 0 453 453 453 0 0 0 0 0 0 0 0 0 0 0 0 0 0 0 0 0 0 0 0 0 0 0 0 0 0 565 565 565 565 565 565 565 564 564 564 564 564 564 564 564 565 565 565 565 565 564 564 564 564 564 565 565 565 565 565 565 565 566 566 566 566 565 565 565 564 564 564 564 564 564 564 564 564 564 564 564 564 564 564 564 563 563 563 563 563 563 563 563 563 563 563 563 563 563 563 563 563 564 564 564 564 564 564 564 564 564 564 564 564 564 563 563 563 562 562 562 562 562 562 562 562 562 562 562 562 562 562 562 562 562 562 562 562 562 562 562 562 562 562 562 562 562 562 562 562 562 562 562 561 561 561 561 561 561 561 561 561 561 561 561 561 561 561 560 0 0 0 0 0 0 0 0 0 0 0 0 0 0 0 0 0 0 0 0 0 0
